NCOLS 215
NROWS 97
XLLCORNER -80.4833333333
YLLCORNER 34.3
CELLSIZE 0.00833333333333336 
NODATA_value -9999 
-9999 -9999 -9999 -9999 -9999 -9999 -9999 -9999 -9999 -9999 -9999 -9999 -9999 -9999 -9999 -9999 -9999 -9999 -9999 -9999 -9999 -9999 -9999 -9999 -9999 -9999 -9999 -9999 -9999 -9999 -9999 -9999 -9999 -9999 -9999 -9999 -9999 -9999 -9999 -9999 -9999 -9999 -9999 -9999 -9999 -9999 -9999 -9999 -9999 -9999 -9999 -9999 -9999 -9999 -9999 -9999 -9999 -9999 -9999 -9999 -9999 -9999 -9999 -9999 -9999 -9999 -9999 -9999 -9999 -9999 -9999 -9999 -9999 -9999 -9999 -9999 -9999 -9999 -9999 111 134 135 138 137 128 126 146 149 148 146 153 161 149 142 142 151 143 145 145 137 128 117 121 128 131 135 132 120 105 112 131 136 130 110 109 114 108 126 132 129 119 120 113 100 109 122 133 132 123 123 134 126 128 138 144 121 115 121 116 101 87 88 85 95 107 113 108 92 91 107 119 110 94 95 111 112 101 110 106 87 91 98 96 110 103 82 80 99 92 85 72 68 87 94 79 78 90 82 86 80 69 77 76 73 67 61 60 63 54 58 55 61 69 64 43 27 29 29 30 30 31 31 30 36 45 39 39 43 43 43 44 -9999 -9999 -9999 -9999
-9999 -9999 -9999 -9999 -9999 -9999 -9999 -9999 -9999 -9999 -9999 -9999 -9999 -9999 -9999 -9999 -9999 -9999 -9999 -9999 -9999 -9999 -9999 -9999 -9999 -9999 -9999 -9999 -9999 -9999 -9999 -9999 -9999 -9999 -9999 -9999 -9999 -9999 -9999 -9999 -9999 -9999 -9999 -9999 -9999 -9999 -9999 -9999 -9999 -9999 -9999 -9999 -9999 -9999 -9999 -9999 -9999 -9999 -9999 -9999 -9999 -9999 -9999 -9999 -9999 -9999 -9999 -9999 -9999 -9999 -9999 -9999 -9999 -9999 -9999 -9999 -9999 -9999 107 114 108 110 115 112 123 132 139 148 157 160 155 152 148 137 134 135 128 141 151 142 138 129 115 111 115 122 129 115 104 115 132 139 139 129 107 99 109 118 125 124 118 112 104 102 116 125 126 120 116 126 124 112 119 133 140 133 134 125 118 109 99 86 82 91 99 107 100 93 105 126 130 109 91 95 111 120 102 87 86 86 82 82 92 100 88 81 77 94 99 88 85 75 73 88 85 74 89 80 74 79 74 70 70 74 73 66 60 54 62 52 48 50 60 52 29 29 31 29 29 28 31 32 32 40 41 38 41 43 44 43 43 -9999 -9999 -9999 -9999
-9999 -9999 -9999 -9999 -9999 -9999 -9999 -9999 -9999 -9999 -9999 -9999 -9999 -9999 -9999 -9999 -9999 -9999 -9999 -9999 -9999 -9999 -9999 -9999 -9999 -9999 -9999 -9999 -9999 -9999 -9999 -9999 -9999 -9999 -9999 -9999 -9999 -9999 -9999 -9999 -9999 -9999 -9999 -9999 -9999 -9999 -9999 -9999 -9999 -9999 -9999 -9999 -9999 -9999 -9999 -9999 -9999 -9999 -9999 -9999 -9999 -9999 -9999 -9999 -9999 -9999 -9999 -9999 -9999 -9999 -9999 -9999 -9999 -9999 -9999 -9999 87 89 94 97 110 112 121 126 143 152 145 149 154 146 143 140 146 135 124 116 132 146 150 143 142 140 132 117 113 108 108 109 103 119 129 127 120 119 111 97 106 119 122 128 123 113 99 100 114 125 121 108 116 115 112 106 116 125 134 131 118 112 100 95 91 93 81 88 102 107 94 88 108 130 123 106 88 87 108 129 108 97 85 80 81 74 86 100 93 86 78 81 92 93 87 77 69 80 83 73 82 78 70 77 73 64 72 76 71 68 58 50 62 62 61 44 60 38 28 31 29 30 30 31 31 33 36 37 39 38 42 45 45 43 42 42 -9999 -9999 -9999
-9999 -9999 -9999 -9999 -9999 -9999 -9999 -9999 -9999 -9999 -9999 -9999 -9999 -9999 -9999 -9999 -9999 -9999 -9999 -9999 -9999 -9999 -9999 -9999 -9999 -9999 -9999 -9999 -9999 -9999 -9999 -9999 -9999 -9999 -9999 -9999 -9999 -9999 -9999 -9999 -9999 -9999 -9999 -9999 -9999 -9999 -9999 -9999 -9999 -9999 -9999 -9999 -9999 -9999 -9999 -9999 -9999 -9999 -9999 -9999 -9999 -9999 -9999 -9999 -9999 -9999 -9999 -9999 -9999 -9999 -9999 -9999 -9999 -9999 89 82 84 106 110 120 122 134 151 147 148 151 158 156 144 132 136 131 137 131 120 115 130 137 131 130 136 141 137 128 124 121 115 104 101 107 118 111 116 115 110 101 97 110 117 120 110 103 91 105 114 121 121 112 104 104 99 105 109 115 129 138 137 126 117 112 102 90 81 87 98 103 97 86 100 113 107 94 88 93 114 129 116 110 104 93 87 72 81 93 91 86 76 73 86 87 85 80 72 71 78 72 73 74 68 73 68 63 69 73 71 69 67 58 48 54 54 44 47 32 28 28 29 32 31 30 30 31 35 39 40 44 43 45 46 43 41 42 -9999 -9999 -9999
-9999 -9999 -9999 -9999 -9999 -9999 -9999 -9999 -9999 -9999 -9999 -9999 -9999 -9999 -9999 -9999 -9999 -9999 -9999 -9999 -9999 -9999 -9999 -9999 -9999 -9999 -9999 -9999 -9999 -9999 -9999 -9999 -9999 -9999 -9999 -9999 -9999 -9999 -9999 -9999 -9999 -9999 -9999 -9999 -9999 -9999 -9999 -9999 -9999 -9999 -9999 -9999 -9999 -9999 -9999 -9999 -9999 -9999 -9999 -9999 -9999 -9999 -9999 -9999 -9999 -9999 -9999 -9999 -9999 -9999 -9999 -9999 -9999 95 77 90 94 97 118 136 148 145 150 153 156 159 164 152 142 134 123 122 135 125 112 117 124 121 117 122 132 141 143 138 136 131 125 111 102 101 103 103 104 102 104 100 94 99 102 114 109 94 100 106 119 126 123 114 101 94 97 109 117 121 131 148 138 123 119 117 112 102 88 76 89 97 94 82 94 105 113 95 80 90 114 127 104 105 100 94 86 75 76 83 84 78 72 69 78 82 77 80 74 70 77 79 71 64 65 64 62 69 72 71 71 69 67 66 58 50 41 40 36 32 29 25 28 29 31 31 31 31 40 42 42 48 44 45 45 43 40 41 -9999 -9999 -9999
-9999 -9999 -9999 -9999 -9999 -9999 -9999 -9999 -9999 -9999 -9999 -9999 -9999 -9999 -9999 -9999 -9999 -9999 -9999 -9999 -9999 -9999 -9999 -9999 -9999 -9999 -9999 -9999 -9999 -9999 -9999 -9999 -9999 -9999 -9999 -9999 -9999 -9999 -9999 -9999 -9999 -9999 -9999 -9999 -9999 -9999 -9999 -9999 -9999 -9999 -9999 -9999 -9999 -9999 -9999 -9999 -9999 -9999 -9999 -9999 -9999 -9999 -9999 -9999 -9999 -9999 -9999 -9999 -9999 -9999 -9999 73 86 79 97 116 120 112 114 130 144 152 153 137 136 138 151 148 135 131 119 112 120 123 114 109 113 119 128 133 137 146 139 134 131 134 128 122 111 103 98 97 97 95 94 92 90 88 89 92 94 94 104 116 124 132 120 110 99 97 113 108 117 126 126 144 152 125 105 98 95 90 84 78 78 93 93 84 88 107 108 95 82 84 104 117 112 90 83 84 83 78 76 88 88 80 70 69 78 81 74 79 74 63 72 74 73 72 66 60 59 69 70 70 70 68 65 62 67 63 49 34 33 29 29 25 29 29 30 31 32 32 41 42 47 47 43 44 46 43 41 40 40 -9999 -9999
-9999 -9999 -9999 -9999 -9999 -9999 -9999 -9999 -9999 -9999 -9999 -9999 -9999 -9999 -9999 -9999 -9999 -9999 -9999 -9999 -9999 -9999 -9999 -9999 -9999 -9999 -9999 -9999 -9999 -9999 -9999 -9999 -9999 -9999 -9999 -9999 -9999 -9999 -9999 -9999 -9999 -9999 -9999 -9999 -9999 -9999 -9999 -9999 -9999 -9999 -9999 -9999 -9999 -9999 -9999 -9999 -9999 -9999 -9999 -9999 -9999 -9999 -9999 -9999 -9999 -9999 -9999 -9999 -9999 -9999 68 58 63 86 103 132 152 137 128 130 137 139 135 130 124 138 136 144 146 140 124 119 108 111 112 105 117 122 131 132 123 133 121 117 121 116 122 133 126 111 115 109 112 114 109 107 103 95 92 90 88 88 99 114 115 120 108 101 92 101 116 123 119 121 116 123 143 140 128 123 119 103 90 89 76 86 93 82 85 95 99 94 86 80 93 110 113 99 91 87 82 73 70 78 82 77 70 65 71 78 72 73 73 65 72 73 73 71 67 66 57 65 68 68 68 67 60 53 58 61 60 39 31 27 27 26 29 28 30 29 29 31 40 40 43 42 42 43 44 42 44 41 40 -9999 -9999
-9999 -9999 -9999 -9999 -9999 -9999 -9999 -9999 -9999 -9999 -9999 -9999 -9999 -9999 -9999 -9999 -9999 -9999 -9999 -9999 -9999 -9999 -9999 -9999 -9999 -9999 -9999 -9999 -9999 -9999 -9999 -9999 -9999 -9999 -9999 -9999 -9999 -9999 -9999 -9999 -9999 -9999 -9999 -9999 -9999 -9999 -9999 -9999 -9999 -9999 -9999 -9999 -9999 -9999 -9999 -9999 -9999 -9999 -9999 -9999 -9999 -9999 -9999 -9999 -9999 -9999 -9999 -9999 95 94 91 78 58 76 107 136 128 140 123 116 117 133 118 118 124 133 126 131 136 131 128 126 114 101 104 102 114 117 113 112 118 121 118 106 107 112 128 131 125 120 119 117 122 126 120 118 114 107 105 104 94 88 88 99 101 104 95 90 99 106 117 117 116 106 102 113 129 145 145 124 104 101 98 90 84 74 80 77 86 99 99 87 78 86 96 103 111 109 108 98 86 76 72 83 84 75 70 67 75 73 72 65 70 62 67 74 73 70 68 64 52 59 65 65 64 66 64 62 53 46 39 32 29 28 26 24 27 28 28 28 28 31 40 42 43 42 41 44 46 43 41 42 40 -9999 -9999
-9999 -9999 -9999 -9999 -9999 -9999 -9999 -9999 -9999 -9999 -9999 -9999 -9999 -9999 -9999 -9999 -9999 -9999 -9999 -9999 -9999 -9999 -9999 -9999 -9999 -9999 -9999 -9999 -9999 -9999 -9999 -9999 -9999 -9999 -9999 -9999 -9999 -9999 -9999 -9999 -9999 -9999 -9999 -9999 -9999 -9999 -9999 -9999 -9999 -9999 -9999 -9999 -9999 -9999 -9999 -9999 -9999 -9999 -9999 -9999 -9999 -9999 -9999 -9999 -9999 -9999 -9999 95 87 85 88 79 65 83 116 129 111 123 106 103 117 124 104 104 125 127 118 129 134 119 112 109 107 98 100 110 111 103 106 121 113 106 113 104 102 113 120 126 135 131 130 126 127 130 125 122 116 109 101 100 103 93 89 87 97 98 92 93 107 114 118 110 102 100 98 107 116 125 132 126 119 115 101 104 99 83 69 75 87 90 92 87 72 78 85 95 98 94 91 93 79 67 71 83 83 80 75 65 73 72 69 64 60 58 67 69 69 68 65 63 56 58 65 61 64 65 64 56 51 43 42 39 28 27 25 29 28 28 29 30 29 32 40 42 42 46 46 45 45 43 41 42 40 40 -9999
-9999 -9999 -9999 -9999 -9999 -9999 -9999 -9999 -9999 -9999 -9999 -9999 -9999 -9999 -9999 -9999 -9999 -9999 -9999 -9999 -9999 -9999 -9999 -9999 -9999 -9999 -9999 -9999 -9999 -9999 -9999 -9999 -9999 -9999 -9999 -9999 -9999 -9999 -9999 -9999 -9999 -9999 -9999 -9999 -9999 -9999 -9999 -9999 -9999 -9999 -9999 -9999 -9999 -9999 -9999 -9999 -9999 -9999 -9999 -9999 -9999 -9999 -9999 -9999 -9999 122 109 92 80 80 65 62 65 82 106 105 101 99 89 87 93 105 94 115 117 110 114 128 129 123 117 106 97 97 109 108 98 100 113 123 112 98 96 98 111 121 123 122 127 133 135 131 128 124 121 117 116 108 101 96 92 90 88 85 89 91 89 94 104 120 114 102 94 92 100 110 116 108 123 137 140 118 117 106 100 88 77 70 82 86 87 80 72 86 97 97 92 87 84 87 83 71 71 79 79 76 75 70 64 62 66 70 62 56 65 66 68 66 64 65 56 50 61 59 60 61 61 54 50 49 57 47 30 27 25 28 28 28 29 28 28 35 37 41 42 44 42 41 41 44 43 41 39 39 -9999
-9999 -9999 -9999 -9999 -9999 -9999 -9999 -9999 -9999 -9999 -9999 -9999 -9999 -9999 -9999 -9999 -9999 -9999 -9999 -9999 -9999 -9999 -9999 -9999 -9999 -9999 -9999 -9999 -9999 -9999 -9999 -9999 -9999 -9999 -9999 -9999 -9999 -9999 -9999 -9999 -9999 -9999 -9999 -9999 -9999 -9999 -9999 -9999 -9999 -9999 -9999 -9999 -9999 -9999 -9999 -9999 -9999 -9999 -9999 -9999 -9999 -9999 -9999 131 146 132 99 88 77 74 57 68 75 80 89 90 94 84 76 64 74 82 99 106 103 108 122 125 112 114 120 111 95 96 103 96 104 109 106 100 97 95 108 118 115 114 117 105 113 122 133 125 116 113 107 103 100 96 96 94 99 100 94 87 84 86 86 94 107 116 103 95 92 101 105 114 112 101 105 113 122 113 106 91 81 79 76 72 72 82 80 71 75 86 90 92 92 82 82 83 79 77 65 76 77 77 72 72 72 70 63 61 61 53 52 54 61 62 62 63 56 49 60 57 54 59 56 57 59 58 60 48 31 27 27 26 27 28 29 29 31 33 36 37 41 42 44 41 39 42 43 42 42 41 -9999
-9999 -9999 -9999 -9999 -9999 -9999 -9999 -9999 -9999 -9999 -9999 -9999 -9999 -9999 -9999 -9999 -9999 -9999 -9999 -9999 -9999 -9999 -9999 -9999 -9999 -9999 -9999 -9999 -9999 -9999 -9999 -9999 -9999 -9999 -9999 -9999 -9999 -9999 -9999 -9999 -9999 -9999 -9999 -9999 -9999 -9999 -9999 -9999 -9999 -9999 -9999 -9999 -9999 -9999 -9999 -9999 -9999 -9999 -9999 -9999 -9999 -9999 137 138 122 99 101 93 67 62 61 84 114 134 107 93 87 65 63 75 88 115 120 131 124 121 116 108 116 105 106 107 93 84 87 93 105 104 91 86 87 96 104 110 106 97 96 101 112 117 130 119 119 116 106 102 112 110 112 107 113 108 101 93 88 86 82 87 96 101 94 90 101 103 108 113 106 94 112 120 119 109 99 90 93 86 88 84 71 66 68 73 76 81 88 86 82 79 75 78 75 75 69 71 76 76 76 74 71 69 67 68 65 65 64 53 51 60 57 55 55 50 61 55 54 56 58 64 66 63 62 53 40 28 28 25 27 27 27 30 35 31 38 37 39 40 42 44 43 41 40 41 42 41 -9999
-9999 -9999 -9999 -9999 -9999 -9999 -9999 -9999 -9999 -9999 -9999 -9999 -9999 -9999 -9999 -9999 -9999 -9999 -9999 -9999 -9999 -9999 -9999 -9999 -9999 -9999 -9999 -9999 -9999 -9999 -9999 -9999 -9999 -9999 -9999 -9999 -9999 -9999 -9999 -9999 -9999 -9999 -9999 -9999 -9999 -9999 -9999 -9999 -9999 -9999 -9999 -9999 -9999 -9999 -9999 -9999 -9999 -9999 -9999 -9999 112 127 149 135 113 85 79 97 75 58 61 72 90 118 126 122 75 58 69 72 84 112 119 125 128 113 101 98 103 105 94 105 93 83 101 101 94 90 87 91 98 101 106 96 108 109 101 105 112 126 134 125 117 114 108 107 120 123 128 126 119 107 97 97 101 96 84 82 82 87 86 91 94 97 108 111 102 95 108 112 117 115 113 109 107 95 88 78 78 69 63 63 74 80 80 79 78 78 73 75 71 70 69 64 73 76 73 73 71 71 65 66 67 67 64 58 49 53 61 52 44 52 53 50 53 57 59 66 65 63 59 50 46 34 30 26 27 27 26 31 33 32 40 41 40 41 45 45 45 41 38 40 40 40 -9999
-9999 -9999 -9999 -9999 -9999 -9999 -9999 -9999 -9999 -9999 -9999 -9999 -9999 -9999 -9999 -9999 -9999 -9999 -9999 -9999 -9999 -9999 -9999 -9999 -9999 -9999 -9999 -9999 -9999 -9999 -9999 -9999 -9999 -9999 -9999 -9999 -9999 -9999 -9999 -9999 -9999 -9999 -9999 -9999 -9999 -9999 -9999 -9999 -9999 -9999 -9999 -9999 -9999 -9999 -9999 -9999 -9999 -9999 -9999 116 133 138 122 111 105 92 72 69 63 59 56 59 69 75 106 106 65 58 71 81 103 96 103 111 122 116 106 95 95 101 93 93 87 93 97 92 84 89 97 104 112 116 115 105 113 123 119 118 128 133 141 128 114 123 128 117 123 130 126 117 109 106 107 106 99 92 92 86 80 81 82 87 95 106 109 103 95 97 108 109 111 107 108 104 103 96 87 85 84 76 76 73 64 75 77 78 78 73 72 73 68 67 68 59 71 72 71 70 67 68 68 62 65 68 65 62 55 45 54 55 43 50 46 49 55 58 63 66 60 56 57 55 51 40 30 27 26 29 26 30 33 34 40 48 44 42 42 44 45 43 39 39 38 37 39
-9999 -9999 -9999 -9999 -9999 -9999 -9999 -9999 -9999 -9999 -9999 -9999 -9999 -9999 -9999 -9999 -9999 -9999 -9999 -9999 -9999 -9999 -9999 -9999 -9999 -9999 -9999 -9999 -9999 -9999 -9999 -9999 -9999 -9999 -9999 -9999 -9999 -9999 -9999 -9999 -9999 -9999 -9999 -9999 -9999 -9999 -9999 -9999 -9999 -9999 -9999 -9999 -9999 -9999 -9999 -9999 -9999 111 128 139 146 141 121 98 85 78 105 125 91 75 74 60 51 50 63 61 53 60 78 98 110 113 126 124 115 106 99 88 95 95 89 83 78 84 84 80 79 88 89 98 105 107 112 117 128 132 129 129 133 125 131 127 122 129 130 124 125 127 118 119 123 119 107 99 97 99 95 92 86 81 78 81 96 108 99 95 89 95 103 110 107 99 103 99 93 92 93 89 89 85 82 79 72 61 68 75 76 74 69 66 65 61 63 62 63 70 70 71 65 64 66 63 57 65 65 60 59 55 44 45 44 42 40 38 43 52 60 63 60 54 49 54 55 51 35 27 26 29 28 27 30 31 36 45 44 43 41 43 42 44 42 40 39 39 41
-9999 -9999 -9999 -9999 -9999 -9999 -9999 -9999 -9999 -9999 -9999 -9999 -9999 -9999 -9999 -9999 -9999 -9999 -9999 -9999 -9999 -9999 -9999 -9999 -9999 -9999 -9999 -9999 -9999 -9999 -9999 -9999 -9999 -9999 -9999 -9999 -9999 -9999 -9999 -9999 -9999 -9999 -9999 -9999 -9999 -9999 -9999 -9999 -9999 -9999 -9999 -9999 -9999 -9999 -9999 115 119 132 135 141 126 112 108 130 117 119 135 129 100 86 89 82 66 56 45 52 87 88 74 92 106 104 112 103 108 99 92 84 93 87 79 81 87 84 94 98 94 86 87 95 96 102 108 123 133 129 128 127 124 108 119 130 132 134 134 128 128 129 126 127 119 111 112 111 111 105 101 94 87 87 82 80 84 97 89 86 88 97 105 109 108 96 91 92 88 86 87 83 84 82 81 77 73 68 60 64 64 68 69 67 67 68 67 61 60 59 69 70 67 63 61 62 53 64 63 59 57 55 57 56 54 54 55 46 37 56 62 56 59 60 53 46 53 51 44 29 24 27 27 26 25 24 24 28 36 44 40 39 41 41 42 42 40 40 39
-9999 -9999 -9999 -9999 -9999 -9999 -9999 -9999 -9999 -9999 -9999 -9999 -9999 -9999 -9999 -9999 -9999 -9999 -9999 -9999 -9999 -9999 -9999 -9999 -9999 -9999 -9999 -9999 -9999 -9999 -9999 -9999 -9999 -9999 -9999 -9999 -9999 -9999 -9999 -9999 -9999 -9999 -9999 -9999 -9999 -9999 -9999 -9999 -9999 -9999 -9999 -9999 -9999 -9999 113 105 116 134 144 146 140 124 140 143 139 147 138 129 105 84 71 77 75 61 47 70 104 117 102 91 95 106 109 96 99 91 82 76 77 76 80 85 98 95 97 105 99 106 100 90 99 102 112 120 132 120 124 116 102 113 129 132 132 135 130 131 132 124 120 125 122 124 119 115 108 101 94 92 95 91 87 83 81 81 78 92 97 101 105 104 101 95 88 85 85 85 83 82 80 78 78 75 76 75 69 62 60 59 57 58 56 54 56 53 50 55 62 67 63 58 63 62 56 54 54 55 57 55 55 56 52 52 52 47 36 39 42 42 46 53 55 45 42 49 48 35 28 22 24 22 22 23 22 22 21 37 40 38 39 42 42 43 43 43 41
-9999 -9999 -9999 -9999 -9999 -9999 -9999 -9999 -9999 -9999 -9999 -9999 -9999 -9999 -9999 -9999 -9999 -9999 -9999 -9999 -9999 -9999 -9999 -9999 -9999 -9999 -9999 -9999 -9999 -9999 -9999 -9999 -9999 -9999 -9999 -9999 -9999 -9999 -9999 -9999 -9999 -9999 -9999 -9999 -9999 -9999 -9999 -9999 -9999 -9999 -9999 -9999 108 112 114 103 114 119 139 146 137 138 140 142 147 147 138 132 100 88 79 67 65 48 56 91 114 111 119 101 101 101 108 94 89 89 70 80 85 90 89 88 95 111 108 115 107 110 106 97 89 89 92 108 125 115 114 114 100 109 115 122 130 130 121 125 118 120 109 118 119 123 119 111 104 101 102 103 103 90 85 81 79 78 78 95 105 100 100 96 93 91 87 85 81 82 81 79 78 76 77 77 77 75 72 73 73 72 71 69 70 68 66 65 59 50 50 56 61 58 58 62 55 48 55 51 49 47 44 41 41 39 35 34 33 34 32 31 33 31 37 46 42 46 48 41 28 27 26 26 24 24 25 23 21 30 42 40 36 39 40 40 43 43 42
-9999 -9999 -9999 -9999 -9999 -9999 -9999 -9999 -9999 -9999 -9999 -9999 -9999 -9999 -9999 -9999 -9999 -9999 -9999 -9999 -9999 -9999 -9999 -9999 -9999 -9999 -9999 -9999 -9999 -9999 -9999 -9999 -9999 -9999 -9999 -9999 -9999 -9999 -9999 -9999 -9999 -9999 -9999 -9999 -9999 -9999 -9999 -9999 -9999 -9999 129 132 125 107 109 105 109 130 135 125 113 116 133 136 133 129 121 110 108 109 98 79 54 46 87 105 90 103 119 107 99 92 94 96 80 79 75 86 95 100 103 100 102 106 103 109 101 112 119 98 105 109 107 103 116 116 103 98 108 118 121 123 124 124 114 116 111 104 102 107 118 114 117 119 109 114 111 110 104 91 86 80 77 78 76 86 87 90 87 87 88 85 83 83 82 79 78 79 76 74 73 75 77 78 77 74 74 74 76 72 73 71 68 70 67 67 58 49 49 50 49 49 49 44 44 41 44 46 46 44 45 43 44 48 45 44 44 39 36 35 31 30 30 29 29 28 27 27 26 28 29 24 24 22 20 27 37 35 39 38 37 36 39 41 42
-9999 -9999 -9999 -9999 -9999 -9999 -9999 -9999 -9999 -9999 -9999 -9999 -9999 -9999 -9999 -9999 -9999 -9999 -9999 -9999 -9999 -9999 -9999 -9999 -9999 -9999 -9999 -9999 -9999 -9999 -9999 -9999 -9999 -9999 -9999 -9999 -9999 -9999 -9999 -9999 -9999 -9999 -9999 -9999 -9999 -9999 -9999 -9999 -9999 133 142 144 132 136 117 96 107 119 120 110 94 119 138 143 132 126 123 117 90 93 89 72 58 49 66 75 94 112 114 97 85 88 83 83 68 75 88 90 92 88 88 91 91 89 90 97 97 106 115 105 99 107 118 122 125 118 107 97 104 122 114 110 110 116 109 110 115 102 94 98 105 102 112 118 116 119 119 113 105 100 97 89 79 76 73 75 82 82 81 82 83 81 81 79 79 78 76 75 74 71 73 75 75 76 75 75 73 74 74 71 71 71 69 69 67 67 67 65 55 50 46 46 47 48 50 54 58 58 56 55 55 55 56 55 49 51 50 47 43 39 34 33 33 30 30 30 29 26 25 26 27 26 24 22 21 31 36 38 40 38 38 37 40 38 38
-9999 -9999 -9999 -9999 -9999 -9999 -9999 -9999 -9999 -9999 -9999 -9999 -9999 -9999 -9999 -9999 -9999 -9999 -9999 -9999 -9999 -9999 -9999 -9999 -9999 -9999 -9999 -9999 -9999 -9999 -9999 -9999 -9999 -9999 -9999 -9999 -9999 -9999 -9999 -9999 -9999 -9999 -9999 -9999 -9999 -9999 -9999 138 139 123 122 136 137 128 120 97 124 120 97 97 94 120 133 137 137 140 136 124 101 80 76 70 66 70 47 75 99 110 96 67 77 83 76 61 70 79 77 76 81 78 76 80 83 90 92 96 104 117 122 114 112 122 119 123 124 114 101 94 96 104 109 98 103 112 116 104 108 106 101 92 95 102 104 104 112 114 115 112 104 100 103 93 81 78 77 73 82 81 80 81 81 80 78 78 75 77 76 74 72 70 72 74 73 73 73 73 72 75 74 71 71 69 69 69 68 65 65 61 62 65 62 57 53 57 59 59 59 58 57 58 57 57 55 54 54 55 54 51 52 48 46 44 43 42 39 37 33 27 24 27 26 26 23 21 27 30 34 36 39 41 37 36 36 37 35
-9999 -9999 -9999 -9999 -9999 -9999 -9999 -9999 -9999 -9999 -9999 -9999 -9999 -9999 -9999 -9999 -9999 -9999 -9999 -9999 -9999 -9999 -9999 -9999 -9999 -9999 -9999 -9999 -9999 -9999 -9999 -9999 -9999 -9999 -9999 -9999 -9999 -9999 -9999 -9999 -9999 -9999 -9999 -9999 -9999 -9999 125 126 130 137 123 115 132 116 113 90 108 118 104 93 87 99 111 125 132 127 134 135 128 103 77 74 63 70 57 53 87 93 87 79 65 67 58 78 85 79 76 88 96 90 95 96 96 103 110 108 102 106 119 129 125 128 121 115 107 110 104 98 92 88 103 91 103 114 110 101 104 105 98 89 87 91 96 105 109 105 106 109 104 96 92 87 81 78 77 74 79 80 79 82 79 77 79 78 75 75 73 72 72 69 69 73 72 74 72 72 72 71 72 70 69 70 70 68 66 65 64 62 62 62 65 61 58 58 58 58 58 57 57 58 56 55 54 54 56 55 55 52 51 51 49 47 46 43 41 40 35 25 24 25 25 23 20 25 29 31 32 33 36 41 38 38 36 37 36
-9999 -9999 -9999 -9999 -9999 -9999 -9999 -9999 -9999 -9999 -9999 -9999 -9999 -9999 -9999 -9999 -9999 -9999 -9999 -9999 -9999 -9999 -9999 -9999 -9999 -9999 -9999 -9999 -9999 -9999 -9999 -9999 -9999 -9999 -9999 -9999 -9999 -9999 -9999 -9999 -9999 -9999 -9999 -9999 141 135 125 115 120 114 105 101 111 101 95 86 92 116 119 108 86 77 96 98 117 108 102 124 120 115 112 106 72 58 52 46 69 66 58 62 56 58 69 81 82 83 77 77 85 95 95 95 106 106 114 121 128 128 124 133 134 130 127 125 120 120 117 112 107 92 88 94 107 106 104 97 102 102 94 87 86 91 98 103 106 103 98 98 94 89 84 84 81 78 77 72 76 79 81 81 80 77 76 76 76 75 74 72 72 71 68 72 71 72 72 71 71 71 70 69 68 67 68 69 66 65 65 64 63 63 63 60 58 58 59 58 58 56 57 57 55 55 54 54 55 50 51 51 52 53 50 45 40 41 36 39 40 25 25 24 23 21 25 29 28 26 32 35 35 37 39 40 36 35 -9999
-9999 -9999 -9999 -9999 -9999 -9999 -9999 -9999 -9999 -9999 -9999 -9999 -9999 -9999 -9999 -9999 -9999 -9999 -9999 -9999 -9999 -9999 -9999 -9999 -9999 -9999 -9999 -9999 -9999 -9999 -9999 -9999 -9999 -9999 -9999 -9999 -9999 -9999 -9999 -9999 -9999 -9999 140 137 134 126 125 138 136 126 118 120 103 95 97 89 93 93 104 92 81 76 77 79 85 78 76 110 104 98 110 106 84 68 62 47 55 70 77 80 84 82 72 77 89 93 89 77 78 77 82 90 95 96 107 119 125 128 124 124 125 129 129 129 126 126 118 110 101 89 82 92 100 107 110 98 93 102 99 88 83 84 95 95 95 98 95 89 86 83 84 81 78 76 75 72 75 78 78 78 77 77 75 76 78 75 74 74 72 70 67 69 71 73 72 70 69 71 68 67 66 67 68 67 65 65 63 61 61 60 60 60 59 59 57 58 59 58 56 55 57 53 53 52 53 52 51 51 52 54 51 47 47 49 46 47 45 30 27 25 21 22 26 28 27 25 32 34 36 36 38 37 36 36 -9999
-9999 -9999 -9999 -9999 -9999 -9999 -9999 -9999 -9999 -9999 -9999 -9999 -9999 -9999 -9999 -9999 -9999 -9999 -9999 -9999 -9999 -9999 -9999 -9999 -9999 -9999 -9999 -9999 -9999 -9999 -9999 -9999 -9999 -9999 -9999 -9999 -9999 -9999 -9999 -9999 -9999 160 158 149 144 140 138 139 142 137 136 128 122 123 121 118 110 86 91 98 80 72 66 66 63 62 66 73 75 86 84 81 90 93 70 48 45 76 83 81 85 89 92 83 86 97 99 98 85 90 94 86 86 104 116 117 111 111 108 113 119 120 125 120 119 120 116 114 107 97 84 90 99 107 107 101 92 96 101 93 83 80 83 87 87 92 91 86 85 80 78 76 76 75 74 71 71 75 77 77 78 77 77 75 74 74 73 77 73 71 68 67 71 70 71 69 70 67 66 66 66 64 65 66 64 64 65 62 60 60 59 59 58 57 57 56 58 57 57 56 56 54 54 52 50 51 53 52 52 53 52 50 50 50 48 48 47 42 26 26 19 22 25 28 28 26 25 30 34 34 34 35 34 35 -9999
-9999 -9999 -9999 -9999 -9999 -9999 -9999 -9999 -9999 -9999 -9999 -9999 -9999 -9999 -9999 -9999 -9999 -9999 -9999 -9999 -9999 -9999 -9999 -9999 -9999 -9999 -9999 -9999 -9999 -9999 -9999 -9999 -9999 -9999 -9999 -9999 -9999 -9999 -9999 156 161 158 150 148 154 149 148 146 149 141 127 116 101 112 109 101 84 76 80 80 75 71 83 83 84 90 94 78 60 80 73 67 77 73 65 42 43 68 75 78 83 87 94 97 96 97 103 103 93 101 99 100 104 106 114 105 99 102 111 123 121 122 117 111 112 108 105 97 90 89 82 88 86 98 106 105 93 94 98 96 90 81 76 79 88 87 86 83 81 79 79 75 74 76 73 69 69 74 76 76 77 76 76 75 73 74 73 72 73 71 71 70 67 68 68 68 68 68 67 64 66 64 65 65 64 63 62 61 59 57 57 57 57 56 58 55 54 55 55 54 54 52 53 53 53 50 51 50 51 53 53 52 52 53 50 49 50 45 28 23 22 22 24 30 28 27 27 29 32 35 35 35 35 35 -9999
-9999 -9999 -9999 -9999 -9999 -9999 -9999 -9999 -9999 -9999 -9999 -9999 -9999 -9999 -9999 -9999 -9999 -9999 -9999 -9999 -9999 -9999 -9999 -9999 -9999 -9999 -9999 -9999 -9999 -9999 -9999 -9999 -9999 -9999 -9999 -9999 -9999 151 156 145 144 139 146 136 135 139 136 141 137 133 130 125 106 100 97 83 99 87 87 81 95 89 94 104 105 118 117 111 79 59 66 59 75 60 41 45 46 69 66 76 74 79 85 81 94 102 100 105 105 107 109 111 120 112 103 93 100 109 119 121 108 110 111 104 109 104 99 97 99 99 94 79 81 88 94 92 97 95 85 92 94 89 82 78 80 83 82 79 78 78 77 73 74 74 73 70 68 69 76 75 75 75 76 74 75 75 72 73 72 70 70 73 71 67 65 68 68 67 67 65 65 61 62 64 64 62 62 60 59 59 59 57 59 56 55 54 54 53 54 54 54 52 51 51 50 52 49 50 49 52 52 51 51 50 50 48 50 50 30 23 19 25 26 29 30 26 28 30 34 37 35 34 37 35 -9999
-9999 -9999 -9999 -9999 -9999 -9999 -9999 -9999 -9999 -9999 -9999 -9999 -9999 -9999 -9999 -9999 -9999 -9999 -9999 -9999 -9999 -9999 -9999 -9999 -9999 -9999 -9999 -9999 -9999 -9999 -9999 -9999 -9999 -9999 -9999 -9999 138 146 158 155 137 132 137 140 126 124 123 132 127 125 117 116 94 85 93 104 110 99 105 98 98 102 100 93 108 111 119 99 71 57 51 52 57 48 39 47 57 51 67 72 77 76 80 79 81 85 92 105 110 110 111 106 105 96 88 97 109 118 129 124 113 102 99 106 111 109 115 114 105 108 107 96 81 77 80 81 93 101 94 85 86 87 84 79 75 81 80 78 75 75 75 72 73 72 72 70 67 67 74 75 75 74 76 74 73 72 72 72 72 71 70 70 69 70 66 63 64 68 66 66 66 64 63 60 63 62 63 61 59 59 61 58 56 54 55 53 53 53 53 53 53 54 53 51 50 48 49 48 49 50 50 49 48 46 48 43 50 46 29 22 21 25 24 27 29 30 31 29 29 33 37 35 36 -9999 -9999
-9999 -9999 -9999 -9999 -9999 -9999 -9999 -9999 -9999 -9999 -9999 -9999 -9999 -9999 -9999 -9999 -9999 -9999 -9999 -9999 -9999 -9999 -9999 -9999 -9999 -9999 -9999 -9999 -9999 -9999 -9999 -9999 -9999 -9999 111 127 144 140 149 155 146 134 129 119 117 111 115 120 123 118 100 95 90 101 96 112 118 105 114 108 105 98 86 74 87 75 79 97 84 66 55 46 40 44 45 72 79 65 64 73 80 74 88 92 96 99 100 102 105 102 101 92 85 89 97 103 111 118 111 109 100 105 94 97 101 108 111 102 93 101 107 106 91 86 74 77 86 93 89 84 83 83 82 80 76 75 77 78 74 74 72 69 75 72 70 69 68 66 73 73 75 75 73 73 72 71 72 71 70 71 69 69 69 71 70 66 62 65 64 67 65 64 63 62 59 60 60 60 59 58 60 57 56 57 57 57 55 55 52 48 50 51 54 52 51 50 46 48 50 50 48 47 48 46 41 41 45 44 31 21 22 23 26 29 29 28 29 25 26 30 36 31 31 -9999 -9999
-9999 -9999 -9999 -9999 -9999 -9999 -9999 -9999 -9999 -9999 -9999 -9999 -9999 -9999 -9999 -9999 -9999 -9999 -9999 -9999 -9999 -9999 -9999 -9999 -9999 -9999 -9999 -9999 -9999 -9999 -9999 -9999 101 99 122 142 138 141 134 139 138 140 136 132 128 124 104 103 101 101 93 96 102 110 108 105 117 113 108 99 93 90 90 71 60 56 54 55 61 52 44 42 51 72 90 92 89 65 68 62 69 84 88 96 98 98 99 99 91 94 89 82 94 99 104 110 117 110 102 98 94 97 94 100 110 106 106 102 92 91 102 103 96 87 75 75 90 89 86 84 78 83 83 80 77 76 71 78 78 75 75 68 72 70 71 69 66 66 74 72 73 74 70 73 74 72 70 71 70 69 68 67 68 70 67 68 67 65 63 63 63 64 63 63 61 59 58 59 60 60 59 57 58 59 58 56 57 55 54 51 48 47 49 50 50 51 48 48 50 50 50 48 48 48 43 36 38 42 26 20 22 23 25 27 29 29 28 24 26 28 33 31 -9999 -9999 -9999
-9999 -9999 -9999 -9999 -9999 -9999 -9999 -9999 -9999 -9999 -9999 -9999 -9999 -9999 -9999 -9999 -9999 -9999 -9999 -9999 -9999 -9999 -9999 -9999 -9999 -9999 -9999 -9999 -9999 -9999 -9999 102 91 91 111 127 122 125 132 131 128 128 125 118 116 111 114 114 110 114 98 105 114 110 119 119 118 109 98 99 86 75 72 63 61 86 92 63 42 41 57 62 95 82 98 107 83 69 69 68 60 65 70 83 89 83 84 82 80 80 79 89 98 102 104 114 123 120 114 110 107 99 88 92 104 98 105 94 90 87 90 89 87 76 70 76 83 82 83 82 77 79 79 78 76 76 70 74 82 76 76 72 67 72 69 67 65 66 75 73 73 72 72 72 73 71 70 71 72 68 68 67 65 67 66 68 67 67 65 60 61 63 63 62 62 62 60 55 59 58 58 58 57 58 56 57 55 55 53 53 53 51 46 48 49 52 50 46 47 50 48 47 47 45 40 37 34 34 22 18 22 21 24 27 27 28 26 23 23 27 33 34 -9999 -9999 -9999
-9999 -9999 -9999 -9999 -9999 -9999 -9999 -9999 -9999 -9999 -9999 -9999 -9999 -9999 -9999 -9999 -9999 -9999 -9999 -9999 -9999 -9999 -9999 -9999 -9999 -9999 -9999 -9999 -9999 99 100 93 88 90 103 114 115 113 124 124 134 129 123 126 128 124 129 127 123 116 107 108 118 115 113 112 108 105 97 94 96 75 78 76 75 78 72 58 39 53 82 93 101 100 105 106 83 66 72 74 68 79 88 84 74 74 76 82 87 88 90 85 92 97 102 111 118 119 115 111 108 102 99 85 88 96 103 99 93 82 80 76 79 73 70 72 76 80 79 80 78 76 75 78 77 75 70 69 74 74 74 72 68 73 69 68 65 68 71 70 71 71 71 70 71 71 70 68 69 68 69 68 66 66 64 65 66 65 66 63 59 61 59 60 61 61 60 59 55 56 57 57 57 57 59 56 56 56 54 54 53 51 51 47 46 50 50 47 45 47 48 47 46 47 48 46 45 45 37 18 22 23 24 25 27 30 27 22 23 29 36 35 -9999 -9999 -9999
-9999 -9999 -9999 -9999 -9999 -9999 -9999 -9999 -9999 -9999 -9999 -9999 -9999 -9999 -9999 -9999 -9999 -9999 -9999 -9999 -9999 -9999 -9999 -9999 -9999 -9999 -9999 113 104 96 97 101 98 97 96 112 109 107 108 120 129 127 115 114 118 127 132 131 126 123 117 121 115 112 104 105 103 94 87 82 83 80 93 89 78 76 74 57 35 56 80 94 100 104 107 104 82 80 83 84 83 83 74 74 82 92 93 87 94 96 97 97 90 100 109 110 103 107 109 104 105 98 90 83 89 98 101 103 99 90 82 78 74 72 70 72 77 80 78 77 79 78 73 74 75 74 66 64 69 73 72 70 66 70 69 66 65 67 72 71 70 70 69 69 69 70 68 67 68 67 67 67 67 66 66 64 65 64 64 64 58 56 58 60 61 61 60 60 59 54 57 56 56 56 54 56 57 56 54 53 53 52 53 50 47 47 48 49 45 44 47 47 46 47 47 45 44 44 39 19 21 23 23 28 28 28 28 22 21 31 35 -9999 -9999 -9999 -9999
-9999 -9999 -9999 -9999 -9999 -9999 -9999 -9999 -9999 -9999 -9999 -9999 -9999 -9999 -9999 -9999 -9999 -9999 -9999 -9999 -9999 -9999 -9999 -9999 -9999 -9999 117 107 103 99 116 118 113 104 96 98 94 93 114 123 120 118 102 105 111 117 124 119 120 121 126 125 116 110 111 101 98 97 98 97 92 86 73 70 63 71 78 73 38 51 84 98 101 102 100 110 91 87 89 86 77 70 73 84 91 94 104 94 95 103 104 105 98 99 98 99 93 94 103 95 95 101 92 82 85 93 99 95 93 88 86 81 72 72 69 76 78 79 78 78 76 77 75 70 73 72 66 65 69 73 70 70 66 69 68 65 64 65 68 72 72 72 69 68 68 68 68 67 67 68 67 68 69 67 65 62 62 64 63 63 56 48 54 60 62 61 60 59 58 54 53 54 55 54 54 53 53 54 54 53 54 53 53 52 47 45 48 48 48 43 45 47 47 46 45 45 43 44 40 20 21 22 22 25 28 29 28 24 21 30 -9999 -9999 -9999 -9999 -9999
-9999 -9999 -9999 -9999 -9999 -9999 -9999 -9999 -9999 -9999 -9999 -9999 -9999 -9999 -9999 -9999 -9999 -9999 -9999 -9999 -9999 -9999 -9999 -9999 105 115 126 114 116 121 131 126 123 114 102 95 84 83 102 108 112 117 100 100 100 116 124 112 109 113 115 116 118 108 106 103 101 100 103 101 89 78 69 64 54 54 59 51 37 62 84 82 73 85 95 101 92 80 83 72 71 81 83 88 94 96 90 86 90 93 104 105 98 90 95 102 89 90 99 96 88 91 88 78 79 93 92 86 81 82 80 77 75 74 69 77 76 76 78 77 76 76 76 73 70 66 66 63 67 73 69 69 64 68 67 62 64 64 65 68 70 69 68 67 67 66 67 68 66 66 66 65 67 65 67 65 60 60 62 58 54 48 47 55 61 60 58 58 58 54 54 52 52 50 50 50 51 52 54 53 53 51 50 48 48 45 44 45 46 44 43 47 46 45 44 42 43 42 46 22 20 22 21 22 27 28 26 26 21 25 -9999 -9999 -9999 -9999 -9999
-9999 -9999 -9999 -9999 -9999 -9999 -9999 -9999 -9999 -9999 -9999 -9999 -9999 -9999 -9999 -9999 -9999 -9999 -9999 -9999 -9999 -9999 -9999 105 106 112 119 130 144 131 120 110 110 99 92 87 79 88 95 98 98 101 100 90 100 115 127 121 103 108 118 112 103 103 102 93 92 90 93 93 92 91 86 80 67 54 42 39 60 61 65 68 57 61 69 77 76 71 68 69 85 90 75 82 95 93 77 76 89 98 101 99 92 87 93 96 82 84 90 97 94 88 83 76 77 91 89 81 78 74 72 77 78 74 68 74 75 77 77 75 73 73 73 74 74 70 65 64 64 68 69 65 64 64 68 62 64 64 66 67 71 70 68 67 67 68 67 67 66 65 65 65 65 64 64 65 64 62 56 51 51 53 47 46 52 57 58 57 55 56 56 55 54 54 52 52 51 52 52 51 51 52 51 51 47 44 43 43 42 41 41 44 46 46 45 43 41 40 36 24 17 19 21 22 24 26 26 27 24 -9999 -9999 -9999 -9999 -9999 -9999
-9999 -9999 -9999 -9999 -9999 -9999 -9999 -9999 -9999 -9999 -9999 -9999 -9999 -9999 -9999 -9999 -9999 -9999 -9999 -9999 -9999 125 126 123 120 111 116 130 137 119 102 100 92 89 101 92 81 81 88 87 86 91 96 86 98 111 117 113 99 110 113 108 100 95 92 92 89 78 77 83 84 87 84 71 55 36 42 54 70 82 90 95 90 86 78 65 68 68 73 74 82 85 68 73 85 82 67 74 90 95 96 99 95 83 94 100 86 75 85 98 99 94 86 79 72 79 89 82 78 75 71 73 76 74 66 70 75 75 74 74 72 70 73 72 72 71 71 72 65 62 64 67 62 64 70 62 63 64 62 65 68 69 68 67 66 67 67 67 66 65 62 65 65 63 63 64 65 61 56 54 49 48 49 43 43 50 56 58 56 56 58 57 55 53 54 53 52 52 50 48 50 52 50 51 48 48 46 44 45 43 41 40 44 47 46 45 45 44 41 37 17 19 21 21 23 28 27 28 -9999 -9999 -9999 -9999 -9999 -9999 -9999
-9999 -9999 -9999 -9999 -9999 -9999 -9999 -9999 -9999 -9999 -9999 -9999 -9999 -9999 -9999 -9999 -9999 -9999 -9999 -9999 123 126 135 134 135 122 105 114 116 106 99 108 110 109 100 104 90 83 80 76 71 82 86 85 96 101 110 103 90 106 103 103 110 105 103 103 94 90 86 75 72 78 80 63 43 31 43 61 82 90 93 93 95 95 92 87 82 75 70 74 77 75 62 69 75 71 67 81 87 88 81 89 86 78 88 94 87 73 79 88 93 88 86 82 73 73 80 82 78 73 71 67 74 71 65 67 74 74 72 73 72 72 69 70 70 70 70 69 69 64 60 60 60 66 65 63 61 63 61 63 69 68 67 65 65 65 65 66 65 64 63 61 63 60 61 61 60 56 55 54 53 47 45 43 44 43 51 55 55 54 54 58 55 54 55 54 52 52 52 50 46 44 45 46 47 48 47 47 46 44 42 40 39 44 46 45 45 45 41 41 23 15 20 20 21 27 28 -9999 -9999 -9999 -9999 -9999 -9999 -9999 -9999
-9999 -9999 -9999 -9999 -9999 -9999 -9999 -9999 -9999 -9999 -9999 -9999 -9999 -9999 -9999 -9999 -9999 -9999 -9999 143 145 128 120 115 116 122 110 103 101 101 113 121 128 123 117 107 94 89 94 85 82 74 74 81 88 89 98 101 87 94 92 104 108 99 95 98 95 96 94 91 67 69 78 74 45 32 49 72 82 84 85 84 87 93 80 67 56 51 53 56 62 58 54 56 60 61 65 66 72 72 79 87 85 80 76 83 84 74 77 89 82 85 85 81 75 68 76 79 76 74 72 67 70 69 64 68 72 73 71 72 72 73 70 70 70 68 67 66 65 67 65 61 61 66 66 63 61 61 62 62 68 65 66 65 64 64 63 63 64 65 63 63 62 61 59 60 54 54 54 53 53 51 51 48 44 43 45 49 55 56 54 55 56 54 53 53 54 53 52 50 47 46 46 46 43 42 45 45 44 43 42 40 39 43 45 43 43 42 40 43 36 16 18 22 20 22 -9999 -9999 -9999 -9999 -9999 -9999 -9999 -9999 -9999
-9999 -9999 -9999 -9999 -9999 -9999 -9999 -9999 -9999 -9999 -9999 -9999 -9999 -9999 -9999 -9999 -9999 -9999 162 156 147 141 127 125 128 130 123 117 117 119 126 133 129 116 122 118 102 105 104 97 96 87 90 78 72 78 87 93 82 85 93 100 97 99 87 84 86 89 86 86 71 55 75 80 54 31 40 65 73 79 80 76 73 63 51 44 51 56 51 48 51 52 62 74 79 79 84 82 81 84 91 90 90 90 73 73 75 71 70 76 85 89 83 79 80 71 68 73 74 74 72 67 63 64 59 69 72 72 71 72 71 70 70 67 68 66 65 66 66 64 66 61 60 65 65 64 64 59 62 64 65 64 66 65 62 62 62 62 62 65 62 62 62 62 58 51 52 52 52 51 51 51 51 51 50 45 41 43 48 56 56 57 56 55 54 54 53 52 52 51 48 47 48 48 47 43 42 42 41 43 42 42 40 38 42 44 43 42 41 41 41 21 17 21 20 -9999 -9999 -9999 -9999 -9999 -9999 -9999 -9999 -9999 -9999
-9999 -9999 -9999 -9999 -9999 -9999 -9999 -9999 -9999 -9999 -9999 -9999 -9999 -9999 -9999 -9999 -9999 167 169 163 148 144 149 146 141 137 131 125 131 130 135 126 116 106 105 113 98 93 95 104 106 99 88 86 71 71 82 94 88 74 85 94 90 102 88 87 78 79 75 63 57 54 54 55 59 35 32 50 68 80 73 73 62 45 55 72 77 91 74 60 76 71 74 72 70 71 81 89 87 88 88 88 80 83 78 74 68 64 74 81 86 81 77 77 78 80 75 69 66 65 69 68 67 58 63 69 69 72 71 71 72 71 70 68 65 66 63 64 64 65 64 59 60 67 66 66 66 60 60 62 65 65 64 66 63 61 62 63 62 63 64 62 64 61 54 54 50 52 52 52 50 50 51 50 50 48 41 44 48 49 52 54 53 53 52 52 52 52 51 50 52 48 50 49 48 46 47 48 47 48 46 44 43 38 38 43 41 40 40 40 44 25 17 20 -9999 -9999 -9999 -9999 -9999 -9999 -9999 -9999 -9999 -9999 -9999
-9999 -9999 -9999 -9999 -9999 -9999 -9999 -9999 -9999 -9999 -9999 -9999 -9999 -9999 -9999 -9999 172 163 161 156 144 153 155 150 146 138 127 121 119 117 116 109 105 107 97 93 85 82 80 88 87 83 72 70 70 67 91 97 94 70 82 86 87 91 91 92 84 76 71 69 82 66 72 63 46 42 33 31 42 74 69 66 44 59 74 80 87 98 86 67 70 63 70 57 59 75 71 78 90 82 81 78 76 78 81 83 78 68 70 79 81 78 75 75 76 77 76 75 69 61 61 62 63 61 70 68 70 69 69 69 69 70 68 67 65 63 62 61 63 63 63 58 62 65 64 63 63 60 59 61 63 65 63 63 62 61 62 62 62 63 62 61 61 56 54 53 52 49 49 51 51 48 49 50 49 48 42 41 46 46 47 52 52 52 51 52 51 50 50 50 49 48 48 49 49 48 49 48 46 47 44 45 43 40 38 42 43 41 39 42 42 36 18 -9999 -9999 -9999 -9999 -9999 -9999 -9999 -9999 -9999 -9999 -9999 -9999
-9999 -9999 -9999 -9999 -9999 -9999 -9999 -9999 -9999 -9999 -9999 -9999 -9999 -9999 -9999 178 170 165 158 156 162 157 150 144 135 130 126 120 114 118 113 114 103 98 92 94 107 99 92 79 74 74 88 90 72 66 69 78 83 76 80 83 81 82 80 89 88 85 81 72 79 77 78 73 58 43 39 34 32 43 55 40 49 72 70 65 78 94 91 73 62 53 53 63 71 65 65 76 80 80 75 71 75 81 87 84 73 66 70 76 79 77 73 74 74 74 74 73 72 70 67 65 61 58 63 66 68 69 68 65 66 68 66 66 65 65 65 61 60 61 63 57 62 64 64 64 64 60 58 59 61 63 62 61 61 61 62 60 61 61 61 59 55 54 53 53 52 52 50 47 46 48 48 50 50 48 43 40 43 45 45 47 51 50 51 50 50 48 48 50 49 49 49 48 47 47 47 47 44 43 43 45 44 41 36 41 42 42 41 40 40 -9999 -9999 -9999 -9999 -9999 -9999 -9999 -9999 -9999 -9999 -9999 -9999 -9999 -9999
-9999 -9999 -9999 -9999 -9999 -9999 -9999 -9999 -9999 -9999 -9999 -9999 -9999 -9999 168 164 168 172 172 163 154 151 152 156 146 146 143 128 126 129 125 110 106 112 103 114 114 98 91 88 97 98 99 103 95 83 64 61 65 65 71 78 72 71 71 79 75 78 85 84 81 85 78 70 65 54 48 39 31 32 34 32 49 54 52 62 87 89 86 77 69 53 47 62 64 55 60 68 78 77 70 64 75 81 90 86 77 67 63 73 77 75 73 71 73 73 71 71 71 70 69 69 68 63 56 64 67 72 69 66 64 66 64 64 64 63 63 60 61 62 62 57 58 63 62 62 63 60 57 59 59 63 63 61 62 61 61 60 60 60 59 54 53 53 53 53 51 51 50 51 48 44 44 49 48 46 43 38 41 44 44 44 46 50 50 50 48 46 46 48 48 48 48 46 45 46 45 44 42 42 42 42 41 42 36 38 41 41 41 -9999 -9999 -9999 -9999 -9999 -9999 -9999 -9999 -9999 -9999 -9999 -9999 -9999 -9999 -9999 -9999
-9999 -9999 -9999 -9999 -9999 -9999 -9999 -9999 -9999 -9999 -9999 -9999 -9999 162 155 154 161 166 163 164 151 146 144 146 149 147 140 135 134 127 116 112 119 127 116 116 114 103 104 106 98 105 106 100 91 91 87 83 75 61 55 67 69 67 75 74 66 73 76 81 79 71 71 68 59 50 46 47 40 33 31 35 40 45 47 52 58 70 65 65 68 54 46 51 50 53 65 71 78 76 68 64 78 85 81 78 75 70 59 66 72 75 73 71 71 72 71 69 70 71 68 68 66 67 56 56 61 70 68 67 64 61 63 62 62 62 60 57 61 62 62 60 56 62 61 62 63 62 58 58 57 60 61 59 58 61 59 59 59 59 54 53 52 52 52 52 51 49 50 49 49 48 45 44 47 46 45 38 38 43 43 42 43 45 49 49 48 46 47 47 47 46 47 46 45 45 45 44 44 42 38 36 36 36 35 36 40 -9999 -9999 -9999 -9999 -9999 -9999 -9999 -9999 -9999 -9999 -9999 -9999 -9999 -9999 -9999 -9999 -9999 -9999
-9999 -9999 -9999 -9999 -9999 -9999 -9999 -9999 -9999 -9999 -9999 -9999 165 172 163 149 151 158 153 166 163 158 148 137 139 142 149 147 140 130 118 125 133 134 119 115 108 104 108 110 105 101 96 92 87 81 78 77 76 69 51 53 52 60 65 69 56 63 61 68 81 71 61 59 53 50 49 51 48 45 34 30 38 38 41 48 49 51 51 60 60 51 39 52 66 69 68 74 77 74 69 65 81 79 74 73 72 70 60 61 72 73 72 70 68 68 70 69 68 67 67 65 66 64 58 54 62 67 65 65 67 62 59 62 61 60 60 56 59 62 64 61 57 56 57 62 61 62 60 57 56 58 59 60 58 58 58 58 58 53 52 52 50 51 52 50 50 50 48 47 46 48 47 42 42 46 45 39 37 42 42 40 40 42 45 48 48 46 46 46 46 45 46 47 45 44 43 43 42 38 37 40 39 41 -9999 -9999 -9999 -9999 -9999 -9999 -9999 -9999 -9999 -9999 -9999 -9999 -9999 -9999 -9999 -9999 -9999 -9999 -9999 -9999 -9999
-9999 -9999 -9999 -9999 -9999 -9999 -9999 -9999 -9999 -9999 155 153 165 174 165 154 142 148 146 157 149 163 157 144 136 131 137 138 141 135 125 133 144 136 127 122 114 115 118 105 101 97 96 91 97 98 94 90 80 68 62 55 44 51 52 57 55 67 56 62 71 76 69 59 54 52 50 52 48 46 43 33 31 34 34 38 41 47 48 50 48 40 42 54 56 61 67 77 75 72 65 62 72 76 73 70 68 68 64 59 66 70 70 69 67 66 68 71 70 66 65 64 65 65 62 54 60 66 65 61 64 62 62 61 61 57 58 57 59 61 60 60 58 53 56 59 60 60 61 59 56 55 55 58 58 56 57 56 53 52 51 52 51 49 50 50 50 49 49 49 48 45 44 44 40 42 44 40 36 40 41 41 39 40 42 44 47 48 45 43 43 44 45 44 43 43 41 40 38 37 43 -9999 -9999 -9999 -9999 -9999 -9999 -9999 -9999 -9999 -9999 -9999 -9999 -9999 -9999 -9999 -9999 -9999 -9999 -9999 -9999 -9999 -9999 -9999 -9999
-9999 -9999 -9999 -9999 -9999 -9999 -9999 -9999 -9999 169 157 148 162 157 163 156 147 141 137 139 149 159 162 150 138 128 127 128 133 136 132 139 154 141 148 137 127 126 109 109 104 107 103 101 107 103 96 96 91 77 56 53 50 43 41 41 46 53 52 55 58 72 69 59 55 51 48 46 46 44 40 38 30 29 32 35 34 36 41 43 40 43 52 59 65 62 63 72 70 67 59 61 70 72 70 65 65 67 61 57 63 66 69 68 66 65 66 66 65 63 64 63 62 62 62 54 58 65 62 61 61 63 63 56 57 56 57 54 58 60 59 58 59 56 52 57 59 59 60 59 55 54 54 53 53 55 55 50 50 50 50 50 50 49 48 50 49 49 49 48 48 47 45 42 41 37 43 41 36 39 40 39 38 37 40 41 44 46 46 45 44 42 42 43 43 44 44 41 -9999 -9999 -9999 -9999 -9999 -9999 -9999 -9999 -9999 -9999 -9999 -9999 -9999 -9999 -9999 -9999 -9999 -9999 -9999 -9999 -9999 -9999 -9999 -9999 -9999 -9999 -9999
-9999 -9999 -9999 -9999 -9999 -9999 -9999 -9999 182 169 156 147 143 147 151 145 152 156 135 132 142 149 150 150 149 145 138 123 118 122 127 126 133 133 128 125 120 112 106 98 101 99 96 102 96 94 87 88 90 75 69 62 50 46 42 38 40 45 46 53 63 75 65 63 57 54 51 51 51 47 47 46 33 29 27 30 30 31 30 31 32 36 45 59 61 60 61 66 61 59 58 61 66 67 66 61 66 62 54 56 66 69 67 67 67 63 63 63 63 63 62 62 60 61 60 57 55 63 60 60 61 60 59 54 55 57 55 56 58 61 58 58 58 56 52 57 59 59 58 59 57 55 53 54 52 52 48 48 49 50 49 49 50 49 48 48 48 48 48 48 47 47 46 44 41 36 38 40 35 37 39 39 38 37 36 39 40 43 47 45 45 42 41 42 43 43 -9999 -9999 -9999 -9999 -9999 -9999 -9999 -9999 -9999 -9999 -9999 -9999 -9999 -9999 -9999 -9999 -9999 -9999 -9999 -9999 -9999 -9999 -9999 -9999 -9999 -9999 -9999 -9999 -9999
-9999 -9999 -9999 -9999 -9999 -9999 -9999 174 175 166 156 152 138 139 139 144 147 155 142 128 132 133 141 145 146 145 152 143 123 112 113 122 131 141 133 112 106 108 100 92 96 91 90 92 89 86 78 79 76 73 74 65 60 58 46 39 38 40 43 49 53 61 61 66 62 54 54 54 53 49 50 52 44 29 27 29 29 32 30 32 33 33 37 57 54 58 65 58 54 55 58 63 64 62 63 60 64 61 52 61 66 67 64 64 65 65 63 62 60 64 62 63 62 60 60 61 53 58 60 60 61 59 56 52 55 56 54 58 60 57 57 57 56 52 55 58 57 58 58 58 57 55 53 53 52 47 44 47 49 49 50 49 49 48 48 46 46 46 47 47 47 46 46 45 43 42 38 36 34 36 40 39 37 38 35 39 38 38 42 44 44 43 40 -9999 -9999 -9999 -9999 -9999 -9999 -9999 -9999 -9999 -9999 -9999 -9999 -9999 -9999 -9999 -9999 -9999 -9999 -9999 -9999 -9999 -9999 -9999 -9999 -9999 -9999 -9999 -9999 -9999 -9999 -9999 -9999
-9999 -9999 -9999 -9999 -9999 -9999 148 154 165 154 154 152 136 132 137 137 145 151 146 142 125 127 132 127 126 129 134 141 138 116 113 126 126 129 130 122 106 97 95 92 84 86 79 78 76 75 67 71 65 64 63 66 69 71 57 46 40 37 38 43 42 44 49 61 59 56 54 56 53 53 51 47 38 30 30 31 30 30 33 32 31 31 33 42 52 60 58 51 58 62 64 63 63 62 59 55 62 57 54 62 63 63 63 60 61 63 64 63 58 60 62 59 58 56 61 62 58 51 58 62 61 59 56 52 49 52 55 56 57 56 56 56 53 50 56 58 57 56 59 56 57 55 54 53 48 45 44 44 46 47 48 49 48 47 47 47 44 45 46 46 46 46 45 44 44 42 42 40 34 36 40 41 39 36 34 35 36 37 38 42 -9999 -9999 -9999 -9999 -9999 -9999 -9999 -9999 -9999 -9999 -9999 -9999 -9999 -9999 -9999 -9999 -9999 -9999 -9999 -9999 -9999 -9999 -9999 -9999 -9999 -9999 -9999 -9999 -9999 -9999 -9999 -9999 -9999 -9999 -9999
-9999 -9999 -9999 -9999 -9999 -9999 153 138 141 142 146 150 148 126 130 137 139 143 146 149 133 133 122 117 115 122 120 129 128 125 111 115 114 123 128 118 105 100 100 96 88 98 91 88 89 80 72 55 53 50 46 52 61 67 58 58 44 37 38 38 34 35 39 44 53 56 56 55 51 51 48 41 30 29 30 30 32 28 30 31 30 32 37 39 47 59 53 51 62 63 63 62 61 63 62 54 60 55 55 59 59 60 60 59 58 62 63 62 61 57 62 62 56 55 58 59 62 51 57 62 58 55 55 51 51 53 54 56 56 55 56 58 52 51 55 55 56 57 57 55 56 55 54 48 45 44 44 44 43 43 45 47 48 47 47 46 45 44 45 45 45 45 44 43 42 42 40 38 33 33 39 41 39 37 35 33 34 -9999 -9999 -9999 -9999 -9999 -9999 -9999 -9999 -9999 -9999 -9999 -9999 -9999 -9999 -9999 -9999 -9999 -9999 -9999 -9999 -9999 -9999 -9999 -9999 -9999 -9999 -9999 -9999 -9999 -9999 -9999 -9999 -9999 -9999 -9999 -9999 -9999 -9999
-9999 -9999 -9999 -9999 -9999 138 144 126 128 140 144 152 148 126 124 132 136 141 146 146 148 143 135 136 130 123 111 111 109 117 111 101 108 114 117 115 104 95 91 85 82 84 82 84 87 78 71 64 60 56 54 45 52 56 52 48 44 40 56 59 53 42 36 34 35 41 48 45 40 45 41 34 31 35 32 30 31 32 28 26 30 33 34 36 43 47 51 47 56 60 57 59 60 62 63 60 53 52 50 54 55 57 58 58 61 61 62 60 60 54 60 60 58 53 54 60 59 53 59 61 56 52 53 50 51 53 56 55 55 54 55 55 52 51 54 55 54 54 55 55 54 53 50 46 44 44 44 43 44 43 42 42 44 46 46 46 45 44 43 43 44 45 43 42 40 42 41 40 35 32 36 41 40 38 -9999 -9999 -9999 -9999 -9999 -9999 -9999 -9999 -9999 -9999 -9999 -9999 -9999 -9999 -9999 -9999 -9999 -9999 -9999 -9999 -9999 -9999 -9999 -9999 -9999 -9999 -9999 -9999 -9999 -9999 -9999 -9999 -9999 -9999 -9999 -9999 -9999 -9999 -9999 -9999 -9999
-9999 -9999 -9999 -9999 117 107 115 128 121 136 145 143 136 116 125 138 146 149 150 139 140 145 143 142 140 136 141 127 113 114 110 114 104 100 103 112 110 107 100 100 93 75 77 74 68 63 57 54 56 54 50 44 47 48 46 43 40 48 62 63 61 44 38 36 36 32 31 30 32 29 32 31 30 32 31 29 30 32 32 32 28 29 32 35 38 44 47 44 48 56 54 56 59 58 59 57 55 49 48 54 59 60 61 61 60 60 60 58 58 53 54 55 57 58 54 56 56 53 59 57 53 53 52 48 51 54 54 55 54 53 54 54 50 49 53 54 54 55 55 54 52 49 46 46 46 44 43 43 44 42 42 42 42 41 45 45 45 45 45 41 43 42 43 43 41 39 39 36 34 32 35 39 -9999 -9999 -9999 -9999 -9999 -9999 -9999 -9999 -9999 -9999 -9999 -9999 -9999 -9999 -9999 -9999 -9999 -9999 -9999 -9999 -9999 -9999 -9999 -9999 -9999 -9999 -9999 -9999 -9999 -9999 -9999 -9999 -9999 -9999 -9999 -9999 -9999 -9999 -9999 -9999 -9999 -9999 -9999
-9999 -9999 -9999 -9999 140 113 113 162 148 123 128 131 114 113 133 138 148 150 144 127 128 130 140 157 165 155 137 120 136 129 130 134 132 117 104 100 110 101 93 86 82 86 94 88 69 55 48 49 48 48 48 51 52 56 54 47 55 59 57 48 43 46 57 65 63 56 44 39 35 35 38 32 31 29 29 27 29 30 33 31 30 29 33 38 37 44 49 44 44 51 51 57 58 58 57 57 55 45 56 60 60 60 61 61 60 59 58 59 60 58 56 56 51 51 52 52 52 51 59 57 56 54 51 47 50 52 52 54 54 53 54 53 49 49 54 53 53 54 55 53 51 46 45 46 46 45 43 42 44 43 42 42 41 41 40 42 44 44 44 43 41 41 41 43 42 41 41 40 38 -9999 -9999 -9999 -9999 -9999 -9999 -9999 -9999 -9999 -9999 -9999 -9999 -9999 -9999 -9999 -9999 -9999 -9999 -9999 -9999 -9999 -9999 -9999 -9999 -9999 -9999 -9999 -9999 -9999 -9999 -9999 -9999 -9999 -9999 -9999 -9999 -9999 -9999 -9999 -9999 -9999 -9999 -9999 -9999 -9999 -9999
-9999 -9999 -9999 147 134 107 110 146 140 111 118 115 102 114 123 131 139 137 129 122 126 131 140 139 148 147 140 141 150 138 137 138 138 135 108 95 95 101 102 97 91 88 80 73 71 65 58 53 65 66 49 59 67 70 52 50 59 68 57 45 51 54 60 78 88 74 59 60 53 54 43 42 42 35 33 28 28 30 28 28 30 26 30 33 33 39 45 45 42 49 50 56 56 57 57 57 49 47 58 58 59 58 59 59 58 57 57 60 59 61 58 57 56 58 59 50 50 50 56 58 58 54 52 51 46 52 50 50 51 53 55 53 51 46 51 52 52 52 54 49 46 45 45 45 46 46 44 42 42 41 41 41 41 41 41 39 40 43 44 44 43 42 39 42 42 41 -9999 -9999 -9999 -9999 -9999 -9999 -9999 -9999 -9999 -9999 -9999 -9999 -9999 -9999 -9999 -9999 -9999 -9999 -9999 -9999 -9999 -9999 -9999 -9999 -9999 -9999 -9999 -9999 -9999 -9999 -9999 -9999 -9999 -9999 -9999 -9999 -9999 -9999 -9999 -9999 -9999 -9999 -9999 -9999 -9999 -9999 -9999 -9999 -9999
-9999 -9999 -9999 117 112 104 102 117 116 104 104 103 115 126 129 138 138 126 119 117 125 123 122 129 135 150 161 146 148 131 125 114 122 126 108 95 100 107 101 92 82 78 86 90 84 63 59 71 77 64 50 63 71 64 62 59 76 72 53 57 59 74 73 81 79 73 70 59 53 38 41 49 40 37 32 29 27 30 29 26 32 28 27 31 32 37 43 43 39 44 54 54 54 56 58 54 44 52 57 56 56 59 58 57 56 58 61 61 59 59 60 58 56 55 54 48 47 53 56 56 54 52 51 52 47 49 48 51 52 53 53 56 54 46 47 51 52 51 48 44 43 44 44 44 44 44 44 44 43 42 41 41 41 40 40 40 39 39 41 42 42 42 40 -9999 -9999 -9999 -9999 -9999 -9999 -9999 -9999 -9999 -9999 -9999 -9999 -9999 -9999 -9999 -9999 -9999 -9999 -9999 -9999 -9999 -9999 -9999 -9999 -9999 -9999 -9999 -9999 -9999 -9999 -9999 -9999 -9999 -9999 -9999 -9999 -9999 -9999 -9999 -9999 -9999 -9999 -9999 -9999 -9999 -9999 -9999 -9999 -9999 -9999 -9999 -9999
-9999 -9999 123 108 104 111 111 101 99 93 108 116 125 131 136 151 133 115 112 118 119 115 126 133 141 147 138 132 122 114 110 104 104 105 107 97 92 105 99 96 93 102 98 92 72 63 83 77 65 53 56 67 70 80 84 73 77 71 67 71 71 82 63 59 52 49 53 50 39 48 63 58 40 36 30 29 28 28 31 32 34 31 26 32 30 35 38 37 36 43 45 46 45 47 49 46 43 56 57 53 52 53 55 54 55 60 62 61 60 58 59 60 57 59 58 53 47 55 56 54 53 54 52 50 48 46 46 50 50 52 52 52 51 48 48 51 51 48 43 42 42 42 42 44 44 44 44 44 44 43 42 41 40 39 38 38 39 38 37 38 38 -9999 -9999 -9999 -9999 -9999 -9999 -9999 -9999 -9999 -9999 -9999 -9999 -9999 -9999 -9999 -9999 -9999 -9999 -9999 -9999 -9999 -9999 -9999 -9999 -9999 -9999 -9999 -9999 -9999 -9999 -9999 -9999 -9999 -9999 -9999 -9999 -9999 -9999 -9999 -9999 -9999 -9999 -9999 -9999 -9999 -9999 -9999 -9999 -9999 -9999 -9999 -9999 -9999 -9999
-9999 -9999 134 124 132 130 125 105 94 96 110 122 131 128 127 139 123 111 110 111 111 120 125 135 152 148 138 135 131 127 128 123 133 120 109 100 91 101 112 109 105 89 75 67 67 81 87 67 56 61 67 80 93 78 74 69 71 79 77 67 73 68 60 53 44 44 42 42 45 56 70 73 51 36 34 30 29 27 28 33 30 25 31 27 28 35 39 38 40 42 42 43 43 40 41 42 48 57 52 52 50 52 52 52 53 57 59 59 62 58 57 57 58 59 59 55 45 51 52 52 50 50 50 51 50 44 49 49 50 50 51 52 50 46 47 50 48 44 41 41 40 40 41 43 43 42 42 42 43 43 42 41 40 39 38 38 38 37 -9999 -9999 -9999 -9999 -9999 -9999 -9999 -9999 -9999 -9999 -9999 -9999 -9999 -9999 -9999 -9999 -9999 -9999 -9999 -9999 -9999 -9999 -9999 -9999 -9999 -9999 -9999 -9999 -9999 -9999 -9999 -9999 -9999 -9999 -9999 -9999 -9999 -9999 -9999 -9999 -9999 -9999 -9999 -9999 -9999 -9999 -9999 -9999 -9999 -9999 -9999 -9999 -9999 -9999 -9999 -9999 -9999
-9999 149 139 139 151 144 139 120 101 93 102 118 120 117 120 118 111 102 105 105 110 112 125 134 134 131 135 138 144 154 149 134 136 135 126 113 99 93 108 116 102 85 79 81 80 87 67 57 63 66 74 93 84 72 71 66 60 63 73 63 59 63 55 45 51 57 54 58 51 66 81 76 59 40 30 28 29 25 28 27 26 28 28 27 28 35 39 38 41 38 37 40 43 44 46 48 49 47 45 48 50 53 49 53 51 52 56 57 58 58 56 55 57 60 62 59 54 48 47 48 47 45 49 52 48 46 49 49 48 49 49 51 50 46 49 47 44 42 39 41 38 38 41 42 42 42 40 39 42 42 42 41 41 39 38 -9999 -9999 -9999 -9999 -9999 -9999 -9999 -9999 -9999 -9999 -9999 -9999 -9999 -9999 -9999 -9999 -9999 -9999 -9999 -9999 -9999 -9999 -9999 -9999 -9999 -9999 -9999 -9999 -9999 -9999 -9999 -9999 -9999 -9999 -9999 -9999 -9999 -9999 -9999 -9999 -9999 -9999 -9999 -9999 -9999 -9999 -9999 -9999 -9999 -9999 -9999 -9999 -9999 -9999 -9999 -9999 -9999 -9999 -9999 -9999
-9999 147 150 149 152 142 135 133 125 100 90 94 102 116 113 104 101 106 110 110 114 120 125 143 125 114 124 119 132 158 167 139 121 115 111 108 101 90 101 114 108 98 94 83 74 68 66 61 68 82 92 95 91 92 89 95 81 56 57 59 53 50 52 49 48 67 63 68 50 64 68 58 49 35 30 27 27 28 28 28 27 26 25 26 31 35 38 35 33 38 40 43 46 45 46 47 45 46 46 47 50 46 47 50 50 50 53 56 58 58 54 52 57 59 61 57 55 52 51 50 49 47 44 45 43 44 50 51 49 48 48 50 47 45 48 42 42 42 41 39 36 38 40 41 41 41 40 41 39 42 41 41 41 -9999 -9999 -9999 -9999 -9999 -9999 -9999 -9999 -9999 -9999 -9999 -9999 -9999 -9999 -9999 -9999 -9999 -9999 -9999 -9999 -9999 -9999 -9999 -9999 -9999 -9999 -9999 -9999 -9999 -9999 -9999 -9999 -9999 -9999 -9999 -9999 -9999 -9999 -9999 -9999 -9999 -9999 -9999 -9999 -9999 -9999 -9999 -9999 -9999 -9999 -9999 -9999 -9999 -9999 -9999 -9999 -9999 -9999 -9999 -9999 -9999 -9999
-9999 137 136 140 146 148 147 142 135 114 96 87 96 109 95 104 112 120 121 123 128 136 132 127 110 110 118 136 150 148 147 139 127 135 133 125 113 92 95 105 116 115 91 85 91 88 75 78 79 92 105 100 90 84 71 68 70 59 52 49 49 57 64 62 56 53 74 74 59 71 57 49 40 33 29 27 28 27 26 29 24 26 24 24 29 33 33 32 38 42 44 44 43 43 44 46 47 48 43 45 47 45 49 51 52 52 52 54 53 53 52 53 57 59 60 55 50 52 51 52 50 52 49 47 44 40 41 50 52 51 48 47 45 45 43 42 41 41 39 37 36 39 39 40 41 40 38 38 37 40 -9999 -9999 -9999 -9999 -9999 -9999 -9999 -9999 -9999 -9999 -9999 -9999 -9999 -9999 -9999 -9999 -9999 -9999 -9999 -9999 -9999 -9999 -9999 -9999 -9999 -9999 -9999 -9999 -9999 -9999 -9999 -9999 -9999 -9999 -9999 -9999 -9999 -9999 -9999 -9999 -9999 -9999 -9999 -9999 -9999 -9999 -9999 -9999 -9999 -9999 -9999 -9999 -9999 -9999 -9999 -9999 -9999 -9999 -9999 -9999 -9999 -9999 -9999 -9999 -9999
145 137 123 128 139 139 136 134 127 116 109 93 88 91 99 108 117 119 114 113 112 110 107 104 107 120 128 151 136 118 130 123 127 145 132 119 109 94 91 100 109 114 94 105 108 104 88 99 98 99 94 80 77 74 66 61 52 53 54 57 53 63 68 74 66 57 67 67 63 73 71 50 55 35 30 27 27 27 25 24 25 27 26 26 28 29 32 38 40 43 42 43 43 42 43 44 46 46 45 43 44 43 50 52 54 54 52 52 51 49 54 57 58 60 59 54 50 51 54 51 50 51 50 50 48 42 37 50 53 48 47 47 42 37 41 41 39 37 35 36 40 41 40 39 40 39 38 -9999 -9999 -9999 -9999 -9999 -9999 -9999 -9999 -9999 -9999 -9999 -9999 -9999 -9999 -9999 -9999 -9999 -9999 -9999 -9999 -9999 -9999 -9999 -9999 -9999 -9999 -9999 -9999 -9999 -9999 -9999 -9999 -9999 -9999 -9999 -9999 -9999 -9999 -9999 -9999 -9999 -9999 -9999 -9999 -9999 -9999 -9999 -9999 -9999 -9999 -9999 -9999 -9999 -9999 -9999 -9999 -9999 -9999 -9999 -9999 -9999 -9999 -9999 -9999 -9999 -9999 -9999 -9999
139 141 126 118 126 125 132 139 136 126 118 106 86 95 100 108 112 114 101 100 98 98 103 111 126 140 148 141 130 110 119 112 129 135 117 103 93 92 90 106 120 122 116 117 117 109 105 116 100 87 76 74 69 61 59 50 60 61 63 70 57 67 83 82 66 65 71 71 74 75 62 48 59 44 31 29 26 25 28 28 30 29 26 27 27 27 34 41 39 40 41 42 43 42 45 44 44 44 43 43 42 39 44 54 56 54 54 54 51 50 55 58 61 61 57 54 51 48 49 49 49 50 52 48 46 45 40 43 52 47 49 48 37 35 40 37 36 33 37 40 42 41 41 39 37 -9999 -9999 -9999 -9999 -9999 -9999 -9999 -9999 -9999 -9999 -9999 -9999 -9999 -9999 -9999 -9999 -9999 -9999 -9999 -9999 -9999 -9999 -9999 -9999 -9999 -9999 -9999 -9999 -9999 -9999 -9999 -9999 -9999 -9999 -9999 -9999 -9999 -9999 -9999 -9999 -9999 -9999 -9999 -9999 -9999 -9999 -9999 -9999 -9999 -9999 -9999 -9999 -9999 -9999 -9999 -9999 -9999 -9999 -9999 -9999 -9999 -9999 -9999 -9999 -9999 -9999 -9999 -9999 -9999 -9999
140 140 143 136 118 111 120 127 123 123 110 101 84 88 101 116 108 102 95 94 101 102 108 112 124 147 140 121 116 108 103 110 122 129 122 108 91 92 96 98 109 115 106 104 99 89 80 93 92 91 73 65 60 58 54 60 73 71 84 85 67 67 77 81 74 85 84 75 71 64 56 57 72 59 33 27 26 27 27 31 32 34 31 27 27 29 32 39 41 39 41 42 43 40 42 44 44 43 42 42 39 39 42 46 52 51 55 54 52 48 55 57 60 61 58 56 52 49 47 48 49 47 47 47 47 46 44 38 46 46 45 41 35 33 36 32 34 38 40 41 41 41 -9999 -9999 -9999 -9999 -9999 -9999 -9999 -9999 -9999 -9999 -9999 -9999 -9999 -9999 -9999 -9999 -9999 -9999 -9999 -9999 -9999 -9999 -9999 -9999 -9999 -9999 -9999 -9999 -9999 -9999 -9999 -9999 -9999 -9999 -9999 -9999 -9999 -9999 -9999 -9999 -9999 -9999 -9999 -9999 -9999 -9999 -9999 -9999 -9999 -9999 -9999 -9999 -9999 -9999 -9999 -9999 -9999 -9999 -9999 -9999 -9999 -9999 -9999 -9999 -9999 -9999 -9999 -9999 -9999 -9999 -9999 -9999 -9999
149 142 143 142 134 131 111 105 119 122 119 111 86 83 94 99 95 96 106 101 116 128 123 128 129 142 134 136 133 120 103 101 109 116 127 118 88 99 105 118 126 122 109 94 86 83 75 72 69 69 65 56 60 66 71 76 82 79 89 96 75 77 90 100 88 75 73 75 67 54 61 72 69 48 31 30 29 27 25 30 26 26 27 25 27 27 27 37 38 39 38 40 40 40 43 43 45 44 42 42 41 37 41 43 44 46 51 54 52 48 55 54 59 60 58 57 53 50 49 48 48 51 47 48 47 46 45 40 37 42 40 39 37 30 32 37 37 40 40 -9999 -9999 -9999 -9999 -9999 -9999 -9999 -9999 -9999 -9999 -9999 -9999 -9999 -9999 -9999 -9999 -9999 -9999 -9999 -9999 -9999 -9999 -9999 -9999 -9999 -9999 -9999 -9999 -9999 -9999 -9999 -9999 -9999 -9999 -9999 -9999 -9999 -9999 -9999 -9999 -9999 -9999 -9999 -9999 -9999 -9999 -9999 -9999 -9999 -9999 -9999 -9999 -9999 -9999 -9999 -9999 -9999 -9999 -9999 -9999 -9999 -9999 -9999 -9999 -9999 -9999 -9999 -9999 -9999 -9999 -9999 -9999 -9999 -9999 -9999 -9999
141 133 133 133 133 132 125 106 101 120 112 102 90 82 88 88 102 112 109 109 125 137 136 142 142 154 145 140 130 124 115 104 95 100 108 103 89 95 117 125 123 124 121 101 108 94 85 82 94 81 68 63 76 92 85 84 87 106 116 105 95 107 111 96 74 67 70 76 65 52 56 64 55 36 27 29 30 31 30 27 26 26 25 25 24 26 26 27 31 39 40 36 37 41 42 42 42 44 43 42 42 38 36 39 42 41 44 49 52 48 53 55 57 60 57 59 54 52 51 50 46 45 47 46 45 45 45 43 35 31 38 38 38 30 34 40 40 -9999 -9999 -9999 -9999 -9999 -9999 -9999 -9999 -9999 -9999 -9999 -9999 -9999 -9999 -9999 -9999 -9999 -9999 -9999 -9999 -9999 -9999 -9999 -9999 -9999 -9999 -9999 -9999 -9999 -9999 -9999 -9999 -9999 -9999 -9999 -9999 -9999 -9999 -9999 -9999 -9999 -9999 -9999 -9999 -9999 -9999 -9999 -9999 -9999 -9999 -9999 -9999 -9999 -9999 -9999 -9999 -9999 -9999 -9999 -9999 -9999 -9999 -9999 -9999 -9999 -9999 -9999 -9999 -9999 -9999 -9999 -9999 -9999 -9999 -9999 -9999 -9999 -9999
145 132 123 118 114 113 110 105 97 106 108 110 97 81 79 80 89 100 104 102 109 121 132 134 120 122 136 145 124 112 108 105 100 95 90 92 87 86 98 103 105 115 127 122 112 107 96 107 101 75 86 96 86 97 91 90 84 89 87 88 93 101 91 83 70 57 69 68 65 57 50 56 52 41 29 28 30 27 29 25 23 23 24 24 25 24 26 28 31 33 32 33 40 42 43 42 43 47 43 41 42 40 35 33 37 37 39 40 45 46 44 51 52 53 55 55 53 52 48 48 46 44 45 45 45 43 44 43 35 28 32 33 29 31 -9999 -9999 -9999 -9999 -9999 -9999 -9999 -9999 -9999 -9999 -9999 -9999 -9999 -9999 -9999 -9999 -9999 -9999 -9999 -9999 -9999 -9999 -9999 -9999 -9999 -9999 -9999 -9999 -9999 -9999 -9999 -9999 -9999 -9999 -9999 -9999 -9999 -9999 -9999 -9999 -9999 -9999 -9999 -9999 -9999 -9999 -9999 -9999 -9999 -9999 -9999 -9999 -9999 -9999 -9999 -9999 -9999 -9999 -9999 -9999 -9999 -9999 -9999 -9999 -9999 -9999 -9999 -9999 -9999 -9999 -9999 -9999 -9999 -9999 -9999 -9999 -9999 -9999 -9999 -9999 -9999
146 139 137 139 132 116 106 102 96 94 90 93 94 82 77 76 92 101 107 113 127 138 121 109 104 111 126 150 134 125 131 133 126 109 105 107 100 83 91 102 114 126 134 125 127 125 100 96 84 87 108 107 93 80 73 70 73 82 70 75 76 77 79 74 68 56 67 72 67 62 50 42 41 34 31 29 28 29 29 27 26 26 24 24 24 24 25 25 29 31 28 32 34 41 46 44 43 44 43 43 41 39 33 38 40 40 39 40 37 39 41 48 51 52 51 49 50 50 48 49 48 49 47 44 41 42 43 37 34 32 27 -9999 -9999 -9999 -9999 -9999 -9999 -9999 -9999 -9999 -9999 -9999 -9999 -9999 -9999 -9999 -9999 -9999 -9999 -9999 -9999 -9999 -9999 -9999 -9999 -9999 -9999 -9999 -9999 -9999 -9999 -9999 -9999 -9999 -9999 -9999 -9999 -9999 -9999 -9999 -9999 -9999 -9999 -9999 -9999 -9999 -9999 -9999 -9999 -9999 -9999 -9999 -9999 -9999 -9999 -9999 -9999 -9999 -9999 -9999 -9999 -9999 -9999 -9999 -9999 -9999 -9999 -9999 -9999 -9999 -9999 -9999 -9999 -9999 -9999 -9999 -9999 -9999 -9999 -9999 -9999 -9999 -9999 -9999 -9999
137 131 130 124 119 112 120 124 114 109 105 90 87 94 93 80 97 101 107 129 132 113 99 110 123 136 149 150 143 141 137 123 105 106 115 113 100 85 96 120 137 134 121 107 118 118 97 91 90 102 110 92 79 84 80 64 62 73 68 61 60 70 77 69 69 67 57 71 66 61 60 56 48 49 40 30 29 29 27 26 26 26 24 23 23 23 24 23 23 26 29 32 33 38 41 43 42 42 41 41 41 38 33 39 41 44 43 41 40 40 42 42 47 51 51 48 50 50 48 48 48 50 49 48 44 42 35 35 34 -9999 -9999 -9999 -9999 -9999 -9999 -9999 -9999 -9999 -9999 -9999 -9999 -9999 -9999 -9999 -9999 -9999 -9999 -9999 -9999 -9999 -9999 -9999 -9999 -9999 -9999 -9999 -9999 -9999 -9999 -9999 -9999 -9999 -9999 -9999 -9999 -9999 -9999 -9999 -9999 -9999 -9999 -9999 -9999 -9999 -9999 -9999 -9999 -9999 -9999 -9999 -9999 -9999 -9999 -9999 -9999 -9999 -9999 -9999 -9999 -9999 -9999 -9999 -9999 -9999 -9999 -9999 -9999 -9999 -9999 -9999 -9999 -9999 -9999 -9999 -9999 -9999 -9999 -9999 -9999 -9999 -9999 -9999 -9999 -9999 -9999
122 129 126 120 119 125 136 132 126 125 117 113 106 105 94 80 79 86 103 120 107 91 99 110 117 117 128 150 151 145 127 103 96 93 88 90 86 90 101 117 111 100 96 102 107 121 118 121 116 124 109 97 105 110 84 68 59 57 58 53 62 78 74 80 77 71 50 59 62 55 54 63 56 46 33 31 32 33 26 27 27 26 25 24 24 25 24 22 24 25 28 31 31 38 42 40 44 42 40 39 40 36 35 39 42 43 43 41 44 41 46 40 44 50 50 49 49 50 49 49 49 51 49 48 47 41 -9999 -9999 -9999 -9999 -9999 -9999 -9999 -9999 -9999 -9999 -9999 -9999 -9999 -9999 -9999 -9999 -9999 -9999 -9999 -9999 -9999 -9999 -9999 -9999 -9999 -9999 -9999 -9999 -9999 -9999 -9999 -9999 -9999 -9999 -9999 -9999 -9999 -9999 -9999 -9999 -9999 -9999 -9999 -9999 -9999 -9999 -9999 -9999 -9999 -9999 -9999 -9999 -9999 -9999 -9999 -9999 -9999 -9999 -9999 -9999 -9999 -9999 -9999 -9999 -9999 -9999 -9999 -9999 -9999 -9999 -9999 -9999 -9999 -9999 -9999 -9999 -9999 -9999 -9999 -9999 -9999 -9999 -9999 -9999 -9999 -9999 -9999 -9999 -9999
126 135 133 130 131 132 125 119 114 115 115 106 100 100 87 77 75 77 90 97 88 94 111 106 111 132 151 160 156 133 120 117 112 109 103 89 80 90 94 88 86 94 109 119 126 131 130 126 131 111 114 117 113 92 75 71 68 71 69 56 57 68 78 78 58 56 43 48 61 57 47 54 53 43 34 49 36 31 25 27 25 26 26 26 27 26 26 24 23 22 29 31 29 36 43 41 42 42 39 39 32 36 41 42 45 43 43 42 44 43 43 43 44 43 46 46 49 50 49 50 49 49 49 47 -9999 -9999 -9999 -9999 -9999 -9999 -9999 -9999 -9999 -9999 -9999 -9999 -9999 -9999 -9999 -9999 -9999 -9999 -9999 -9999 -9999 -9999 -9999 -9999 -9999 -9999 -9999 -9999 -9999 -9999 -9999 -9999 -9999 -9999 -9999 -9999 -9999 -9999 -9999 -9999 -9999 -9999 -9999 -9999 -9999 -9999 -9999 -9999 -9999 -9999 -9999 -9999 -9999 -9999 -9999 -9999 -9999 -9999 -9999 -9999 -9999 -9999 -9999 -9999 -9999 -9999 -9999 -9999 -9999 -9999 -9999 -9999 -9999 -9999 -9999 -9999 -9999 -9999 -9999 -9999 -9999 -9999 -9999 -9999 -9999 -9999 -9999 -9999 -9999 -9999 -9999
126 132 122 124 126 124 118 114 113 107 104 96 100 96 90 83 75 74 76 88 106 128 140 128 120 146 159 152 153 151 144 135 129 128 118 94 81 87 87 88 100 114 129 131 127 128 121 116 116 118 96 97 100 93 87 93 85 80 68 60 50 60 70 66 57 56 42 43 58 59 55 44 42 35 41 43 28 27 25 28 24 23 25 26 27 25 27 25 24 22 24 33 30 37 41 41 41 41 40 37 29 39 40 42 43 44 42 44 43 44 43 44 44 42 43 45 47 47 49 50 48 -9999 -9999 -9999 -9999 -9999 -9999 -9999 -9999 -9999 -9999 -9999 -9999 -9999 -9999 -9999 -9999 -9999 -9999 -9999 -9999 -9999 -9999 -9999 -9999 -9999 -9999 -9999 -9999 -9999 -9999 -9999 -9999 -9999 -9999 -9999 -9999 -9999 -9999 -9999 -9999 -9999 -9999 -9999 -9999 -9999 -9999 -9999 -9999 -9999 -9999 -9999 -9999 -9999 -9999 -9999 -9999 -9999 -9999 -9999 -9999 -9999 -9999 -9999 -9999 -9999 -9999 -9999 -9999 -9999 -9999 -9999 -9999 -9999 -9999 -9999 -9999 -9999 -9999 -9999 -9999 -9999 -9999 -9999 -9999 -9999 -9999 -9999 -9999 -9999 -9999 -9999 -9999 -9999 -9999
120 116 113 124 128 126 127 129 121 114 107 108 110 109 94 84 77 73 75 87 115 137 146 152 154 160 153 149 149 144 133 127 121 116 111 103 89 76 82 90 98 116 130 119 117 115 106 105 123 116 102 85 80 81 87 80 64 58 61 65 59 53 62 60 53 53 43 41 43 48 52 47 38 44 43 37 27 26 25 27 27 28 27 26 26 25 25 25 25 26 24 32 32 32 34 39 41 40 38 28 33 43 44 43 43 41 41 43 43 44 44 45 45 43 42 43 45 44 -9999 -9999 -9999 -9999 -9999 -9999 -9999 -9999 -9999 -9999 -9999 -9999 -9999 -9999 -9999 -9999 -9999 -9999 -9999 -9999 -9999 -9999 -9999 -9999 -9999 -9999 -9999 -9999 -9999 -9999 -9999 -9999 -9999 -9999 -9999 -9999 -9999 -9999 -9999 -9999 -9999 -9999 -9999 -9999 -9999 -9999 -9999 -9999 -9999 -9999 -9999 -9999 -9999 -9999 -9999 -9999 -9999 -9999 -9999 -9999 -9999 -9999 -9999 -9999 -9999 -9999 -9999 -9999 -9999 -9999 -9999 -9999 -9999 -9999 -9999 -9999 -9999 -9999 -9999 -9999 -9999 -9999 -9999 -9999 -9999 -9999 -9999 -9999 -9999 -9999 -9999 -9999 -9999 -9999 -9999 -9999 -9999
110 111 113 116 117 117 120 115 109 104 97 95 98 95 88 84 77 71 72 83 96 108 120 130 135 127 137 147 143 136 115 102 100 98 95 87 80 72 73 95 111 119 117 103 99 98 99 115 127 115 95 88 87 75 73 71 68 72 77 76 66 54 50 51 46 48 56 60 53 43 42 43 52 50 51 39 28 25 28 28 28 25 27 25 26 27 26 26 22 23 22 27 28 29 30 32 37 38 30 37 43 41 42 43 42 40 41 41 43 44 43 42 47 46 41 41 -9999 -9999 -9999 -9999 -9999 -9999 -9999 -9999 -9999 -9999 -9999 -9999 -9999 -9999 -9999 -9999 -9999 -9999 -9999 -9999 -9999 -9999 -9999 -9999 -9999 -9999 -9999 -9999 -9999 -9999 -9999 -9999 -9999 -9999 -9999 -9999 -9999 -9999 -9999 -9999 -9999 -9999 -9999 -9999 -9999 -9999 -9999 -9999 -9999 -9999 -9999 -9999 -9999 -9999 -9999 -9999 -9999 -9999 -9999 -9999 -9999 -9999 -9999 -9999 -9999 -9999 -9999 -9999 -9999 -9999 -9999 -9999 -9999 -9999 -9999 -9999 -9999 -9999 -9999 -9999 -9999 -9999 -9999 -9999 -9999 -9999 -9999 -9999 -9999 -9999 -9999 -9999 -9999 -9999 -9999 -9999 -9999 -9999 -9999
104 112 106 106 111 117 117 110 104 102 113 111 96 94 92 87 82 77 74 75 87 96 108 107 101 106 137 144 141 135 121 125 129 124 125 117 96 73 80 101 102 103 100 88 93 114 119 122 121 112 110 111 106 97 79 90 86 81 72 74 71 66 68 65 62 61 64 63 63 57 58 57 56 56 59 52 38 30 29 29 30 27 29 28 28 26 25 26 22 22 24 30 29 28 29 30 30 28 34 40 43 43 41 41 42 42 42 42 41 41 40 40 41 -9999 -9999 -9999 -9999 -9999 -9999 -9999 -9999 -9999 -9999 -9999 -9999 -9999 -9999 -9999 -9999 -9999 -9999 -9999 -9999 -9999 -9999 -9999 -9999 -9999 -9999 -9999 -9999 -9999 -9999 -9999 -9999 -9999 -9999 -9999 -9999 -9999 -9999 -9999 -9999 -9999 -9999 -9999 -9999 -9999 -9999 -9999 -9999 -9999 -9999 -9999 -9999 -9999 -9999 -9999 -9999 -9999 -9999 -9999 -9999 -9999 -9999 -9999 -9999 -9999 -9999 -9999 -9999 -9999 -9999 -9999 -9999 -9999 -9999 -9999 -9999 -9999 -9999 -9999 -9999 -9999 -9999 -9999 -9999 -9999 -9999 -9999 -9999 -9999 -9999 -9999 -9999 -9999 -9999 -9999 -9999 -9999 -9999 -9999 -9999 -9999 -9999
95 110 100 103 107 118 124 120 113 111 114 124 115 108 99 88 83 76 72 70 82 98 94 95 105 123 143 146 139 132 135 140 133 127 122 113 96 70 76 84 85 86 86 96 110 128 132 128 115 121 121 111 102 95 85 81 79 75 71 72 71 68 67 66 66 65 65 63 61 62 57 58 55 55 55 50 54 37 28 31 28 26 28 29 26 26 25 23 22 21 22 24 27 28 29 29 26 26 30 41 42 43 42 41 41 41 41 43 42 43 41 -9999 -9999 -9999 -9999 -9999 -9999 -9999 -9999 -9999 -9999 -9999 -9999 -9999 -9999 -9999 -9999 -9999 -9999 -9999 -9999 -9999 -9999 -9999 -9999 -9999 -9999 -9999 -9999 -9999 -9999 -9999 -9999 -9999 -9999 -9999 -9999 -9999 -9999 -9999 -9999 -9999 -9999 -9999 -9999 -9999 -9999 -9999 -9999 -9999 -9999 -9999 -9999 -9999 -9999 -9999 -9999 -9999 -9999 -9999 -9999 -9999 -9999 -9999 -9999 -9999 -9999 -9999 -9999 -9999 -9999 -9999 -9999 -9999 -9999 -9999 -9999 -9999 -9999 -9999 -9999 -9999 -9999 -9999 -9999 -9999 -9999 -9999 -9999 -9999 -9999 -9999 -9999 -9999 -9999 -9999 -9999 -9999 -9999 -9999 -9999 -9999 -9999 -9999 -9999
81 94 108 114 114 118 121 122 123 122 129 126 120 116 103 93 82 75 71 69 80 86 105 115 119 132 142 142 136 126 127 132 132 123 111 99 93 84 66 71 76 91 113 125 129 133 130 116 97 109 116 113 98 91 86 80 68 71 72 69 69 67 64 63 64 66 67 63 63 58 55 55 57 52 52 44 42 35 29 32 30 30 28 28 26 27 26 23 21 21 23 23 22 26 27 28 26 29 29 34 40 40 40 40 42 42 42 44 -9999 -9999 -9999 -9999 -9999 -9999 -9999 -9999 -9999 -9999 -9999 -9999 -9999 -9999 -9999 -9999 -9999 -9999 -9999 -9999 -9999 -9999 -9999 -9999 -9999 -9999 -9999 -9999 -9999 -9999 -9999 -9999 -9999 -9999 -9999 -9999 -9999 -9999 -9999 -9999 -9999 -9999 -9999 -9999 -9999 -9999 -9999 -9999 -9999 -9999 -9999 -9999 -9999 -9999 -9999 -9999 -9999 -9999 -9999 -9999 -9999 -9999 -9999 -9999 -9999 -9999 -9999 -9999 -9999 -9999 -9999 -9999 -9999 -9999 -9999 -9999 -9999 -9999 -9999 -9999 -9999 -9999 -9999 -9999 -9999 -9999 -9999 -9999 -9999 -9999 -9999 -9999 -9999 -9999 -9999 -9999 -9999 -9999 -9999 -9999 -9999 -9999 -9999 -9999 -9999 -9999 -9999
-9999 85 104 112 110 103 108 112 123 136 137 135 126 119 111 93 81 74 71 72 95 104 106 116 127 132 138 133 128 119 118 122 128 128 119 111 101 87 76 65 73 94 122 130 130 127 117 114 94 86 94 99 90 87 83 69 64 69 71 69 67 66 65 62 62 64 65 65 64 60 58 56 51 50 50 47 52 48 30 28 28 28 26 24 25 25 21 24 21 23 24 24 22 24 24 23 27 28 29 29 37 39 38 42 43 45 -9999 -9999 -9999 -9999 -9999 -9999 -9999 -9999 -9999 -9999 -9999 -9999 -9999 -9999 -9999 -9999 -9999 -9999 -9999 -9999 -9999 -9999 -9999 -9999 -9999 -9999 -9999 -9999 -9999 -9999 -9999 -9999 -9999 -9999 -9999 -9999 -9999 -9999 -9999 -9999 -9999 -9999 -9999 -9999 -9999 -9999 -9999 -9999 -9999 -9999 -9999 -9999 -9999 -9999 -9999 -9999 -9999 -9999 -9999 -9999 -9999 -9999 -9999 -9999 -9999 -9999 -9999 -9999 -9999 -9999 -9999 -9999 -9999 -9999 -9999 -9999 -9999 -9999 -9999 -9999 -9999 -9999 -9999 -9999 -9999 -9999 -9999 -9999 -9999 -9999 -9999 -9999 -9999 -9999 -9999 -9999 -9999 -9999 -9999 -9999 -9999 -9999 -9999 -9999 -9999 -9999 -9999 -9999 -9999
-9999 79 92 108 102 97 105 117 128 135 135 134 128 118 108 94 84 74 71 74 104 111 108 114 122 128 130 128 121 114 108 111 118 128 122 110 99 86 78 66 74 97 117 124 111 106 113 124 110 92 80 79 76 79 75 70 62 65 68 69 66 64 60 60 58 61 62 61 62 60 56 55 54 53 52 54 54 51 33 29 30 26 24 20 22 22 23 23 21 22 22 22 21 23 24 23 23 26 27 27 27 32 37 -9999 -9999 -9999 -9999 -9999 -9999 -9999 -9999 -9999 -9999 -9999 -9999 -9999 -9999 -9999 -9999 -9999 -9999 -9999 -9999 -9999 -9999 -9999 -9999 -9999 -9999 -9999 -9999 -9999 -9999 -9999 -9999 -9999 -9999 -9999 -9999 -9999 -9999 -9999 -9999 -9999 -9999 -9999 -9999 -9999 -9999 -9999 -9999 -9999 -9999 -9999 -9999 -9999 -9999 -9999 -9999 -9999 -9999 -9999 -9999 -9999 -9999 -9999 -9999 -9999 -9999 -9999 -9999 -9999 -9999 -9999 -9999 -9999 -9999 -9999 -9999 -9999 -9999 -9999 -9999 -9999 -9999 -9999 -9999 -9999 -9999 -9999 -9999 -9999 -9999 -9999 -9999 -9999 -9999 -9999 -9999 -9999 -9999 -9999 -9999 -9999 -9999 -9999 -9999 -9999 -9999 -9999 -9999 -9999 -9999 -9999 -9999
-9999 89 84 86 94 106 117 121 115 122 127 123 118 112 102 89 87 76 73 74 89 89 95 110 121 127 125 126 122 119 112 98 99 104 117 113 96 84 75 64 79 95 118 109 100 116 124 115 105 102 87 75 68 66 69 65 63 57 63 63 63 62 62 56 55 59 59 59 59 59 56 55 56 54 52 52 53 51 37 30 30 27 28 25 21 21 22 24 21 23 21 22 21 25 24 23 22 25 28 25 27 -9999 -9999 -9999 -9999 -9999 -9999 -9999 -9999 -9999 -9999 -9999 -9999 -9999 -9999 -9999 -9999 -9999 -9999 -9999 -9999 -9999 -9999 -9999 -9999 -9999 -9999 -9999 -9999 -9999 -9999 -9999 -9999 -9999 -9999 -9999 -9999 -9999 -9999 -9999 -9999 -9999 -9999 -9999 -9999 -9999 -9999 -9999 -9999 -9999 -9999 -9999 -9999 -9999 -9999 -9999 -9999 -9999 -9999 -9999 -9999 -9999 -9999 -9999 -9999 -9999 -9999 -9999 -9999 -9999 -9999 -9999 -9999 -9999 -9999 -9999 -9999 -9999 -9999 -9999 -9999 -9999 -9999 -9999 -9999 -9999 -9999 -9999 -9999 -9999 -9999 -9999 -9999 -9999 -9999 -9999 -9999 -9999 -9999 -9999 -9999 -9999 -9999 -9999 -9999 -9999 -9999 -9999 -9999 -9999 -9999 -9999 -9999 -9999 -9999
-9999 -9999 94 81 78 92 110 106 108 118 118 110 110 105 94 90 87 80 73 69 80 90 105 118 120 118 112 116 119 118 110 102 91 102 114 110 99 87 75 64 76 105 105 91 106 123 120 107 93 87 79 74 68 63 61 61 64 61 60 64 60 59 60 58 52 57 57 57 57 58 55 53 55 54 51 52 52 50 42 30 26 26 26 26 22 23 21 22 24 21 21 24 26 26 25 22 23 24 -9999 -9999 -9999 -9999 -9999 -9999 -9999 -9999 -9999 -9999 -9999 -9999 -9999 -9999 -9999 -9999 -9999 -9999 -9999 -9999 -9999 -9999 -9999 -9999 -9999 -9999 -9999 -9999 -9999 -9999 -9999 -9999 -9999 -9999 -9999 -9999 -9999 -9999 -9999 -9999 -9999 -9999 -9999 -9999 -9999 -9999 -9999 -9999 -9999 -9999 -9999 -9999 -9999 -9999 -9999 -9999 -9999 -9999 -9999 -9999 -9999 -9999 -9999 -9999 -9999 -9999 -9999 -9999 -9999 -9999 -9999 -9999 -9999 -9999 -9999 -9999 -9999 -9999 -9999 -9999 -9999 -9999 -9999 -9999 -9999 -9999 -9999 -9999 -9999 -9999 -9999 -9999 -9999 -9999 -9999 -9999 -9999 -9999 -9999 -9999 -9999 -9999 -9999 -9999 -9999 -9999 -9999 -9999 -9999 -9999 -9999 -9999 -9999 -9999 -9999 -9999 -9999
-9999 -9999 100 91 72 78 89 99 105 103 104 101 107 99 89 89 89 82 73 71 70 88 112 113 107 99 110 120 116 118 116 106 90 97 108 108 101 88 78 64 69 85 91 105 122 118 104 96 84 79 72 69 66 66 63 60 59 57 54 59 56 58 59 57 52 52 56 54 55 54 54 55 55 53 50 51 52 53 48 34 28 29 26 25 24 19 19 22 26 23 22 25 26 28 27 24 -9999 -9999 -9999 -9999 -9999 -9999 -9999 -9999 -9999 -9999 -9999 -9999 -9999 -9999 -9999 -9999 -9999 -9999 -9999 -9999 -9999 -9999 -9999 -9999 -9999 -9999 -9999 -9999 -9999 -9999 -9999 -9999 -9999 -9999 -9999 -9999 -9999 -9999 -9999 -9999 -9999 -9999 -9999 -9999 -9999 -9999 -9999 -9999 -9999 -9999 -9999 -9999 -9999 -9999 -9999 -9999 -9999 -9999 -9999 -9999 -9999 -9999 -9999 -9999 -9999 -9999 -9999 -9999 -9999 -9999 -9999 -9999 -9999 -9999 -9999 -9999 -9999 -9999 -9999 -9999 -9999 -9999 -9999 -9999 -9999 -9999 -9999 -9999 -9999 -9999 -9999 -9999 -9999 -9999 -9999 -9999 -9999 -9999 -9999 -9999 -9999 -9999 -9999 -9999 -9999 -9999 -9999 -9999 -9999 -9999 -9999 -9999 -9999 -9999 -9999 -9999 -9999 -9999 -9999
-9999 -9999 -9999 90 84 75 76 81 85 88 84 92 104 93 85 87 86 85 75 71 66 77 99 100 91 97 112 114 111 114 113 108 92 86 88 92 90 86 81 68 69 94 111 118 114 109 99 84 79 73 67 66 64 63 63 62 60 57 56 50 47 48 48 49 51 51 55 54 54 55 54 50 50 50 50 52 54 47 47 37 35 33 29 26 21 22 24 24 25 24 23 24 27 -9999 -9999 -9999 -9999 -9999 -9999 -9999 -9999 -9999 -9999 -9999 -9999 -9999 -9999 -9999 -9999 -9999 -9999 -9999 -9999 -9999 -9999 -9999 -9999 -9999 -9999 -9999 -9999 -9999 -9999 -9999 -9999 -9999 -9999 -9999 -9999 -9999 -9999 -9999 -9999 -9999 -9999 -9999 -9999 -9999 -9999 -9999 -9999 -9999 -9999 -9999 -9999 -9999 -9999 -9999 -9999 -9999 -9999 -9999 -9999 -9999 -9999 -9999 -9999 -9999 -9999 -9999 -9999 -9999 -9999 -9999 -9999 -9999 -9999 -9999 -9999 -9999 -9999 -9999 -9999 -9999 -9999 -9999 -9999 -9999 -9999 -9999 -9999 -9999 -9999 -9999 -9999 -9999 -9999 -9999 -9999 -9999 -9999 -9999 -9999 -9999 -9999 -9999 -9999 -9999 -9999 -9999 -9999 -9999 -9999 -9999 -9999 -9999 -9999 -9999 -9999 -9999 -9999 -9999 -9999 -9999 -9999
-9999 -9999 -9999 107 102 87 79 79 79 76 74 79 91 90 88 85 83 83 77 70 69 67 83 85 81 95 107 109 102 105 114 105 99 90 77 86 87 84 77 66 67 86 97 105 102 93 84 75 70 70 64 65 65 62 62 59 54 53 48 50 54 53 49 45 43 43 47 49 53 54 56 54 49 50 53 54 53 49 52 49 50 51 41 30 21 22 23 23 24 25 24 -9999 -9999 -9999 -9999 -9999 -9999 -9999 -9999 -9999 -9999 -9999 -9999 -9999 -9999 -9999 -9999 -9999 -9999 -9999 -9999 -9999 -9999 -9999 -9999 -9999 -9999 -9999 -9999 -9999 -9999 -9999 -9999 -9999 -9999 -9999 -9999 -9999 -9999 -9999 -9999 -9999 -9999 -9999 -9999 -9999 -9999 -9999 -9999 -9999 -9999 -9999 -9999 -9999 -9999 -9999 -9999 -9999 -9999 -9999 -9999 -9999 -9999 -9999 -9999 -9999 -9999 -9999 -9999 -9999 -9999 -9999 -9999 -9999 -9999 -9999 -9999 -9999 -9999 -9999 -9999 -9999 -9999 -9999 -9999 -9999 -9999 -9999 -9999 -9999 -9999 -9999 -9999 -9999 -9999 -9999 -9999 -9999 -9999 -9999 -9999 -9999 -9999 -9999 -9999 -9999 -9999 -9999 -9999 -9999 -9999 -9999 -9999 -9999 -9999 -9999 -9999 -9999 -9999 -9999 -9999 -9999 -9999 -9999 -9999
-9999 -9999 -9999 -9999 107 100 101 103 96 89 78 75 76 85 89 86 86 83 81 73 70 68 70 70 93 112 117 108 96 105 108 95 91 87 75 79 77 75 78 70 64 81 93 99 96 85 76 70 64 64 60 58 56 52 53 50 49 50 55 58 57 56 57 53 51 51 47 42 44 48 51 53 47 50 54 54 53 53 52 54 57 51 41 35 29 22 21 22 -9999 -9999 -9999 -9999 -9999 -9999 -9999 -9999 -9999 -9999 -9999 -9999 -9999 -9999 -9999 -9999 -9999 -9999 -9999 -9999 -9999 -9999 -9999 -9999 -9999 -9999 -9999 -9999 -9999 -9999 -9999 -9999 -9999 -9999 -9999 -9999 -9999 -9999 -9999 -9999 -9999 -9999 -9999 -9999 -9999 -9999 -9999 -9999 -9999 -9999 -9999 -9999 -9999 -9999 -9999 -9999 -9999 -9999 -9999 -9999 -9999 -9999 -9999 -9999 -9999 -9999 -9999 -9999 -9999 -9999 -9999 -9999 -9999 -9999 -9999 -9999 -9999 -9999 -9999 -9999 -9999 -9999 -9999 -9999 -9999 -9999 -9999 -9999 -9999 -9999 -9999 -9999 -9999 -9999 -9999 -9999 -9999 -9999 -9999 -9999 -9999 -9999 -9999 -9999 -9999 -9999 -9999 -9999 -9999 -9999 -9999 -9999 -9999 -9999 -9999 -9999 -9999 -9999 -9999 -9999 -9999 -9999 -9999 -9999 -9999 -9999 -9999
-9999 -9999 -9999 -9999 125 115 109 100 93 94 87 77 74 74 76 83 85 82 80 77 67 66 62 65 84 103 107 94 92 107 108 104 101 91 84 76 76 79 75 69 63 74 81 86 83 75 70 63 56 53 53 54 56 57 56 56 55 57 58 58 56 56 55 56 53 54 54 53 50 42 43 48 47 52 55 53 54 55 55 55 55 49 51 48 35 32 -9999 -9999 -9999 -9999 -9999 -9999 -9999 -9999 -9999 -9999 -9999 -9999 -9999 -9999 -9999 -9999 -9999 -9999 -9999 -9999 -9999 -9999 -9999 -9999 -9999 -9999 -9999 -9999 -9999 -9999 -9999 -9999 -9999 -9999 -9999 -9999 -9999 -9999 -9999 -9999 -9999 -9999 -9999 -9999 -9999 -9999 -9999 -9999 -9999 -9999 -9999 -9999 -9999 -9999 -9999 -9999 -9999 -9999 -9999 -9999 -9999 -9999 -9999 -9999 -9999 -9999 -9999 -9999 -9999 -9999 -9999 -9999 -9999 -9999 -9999 -9999 -9999 -9999 -9999 -9999 -9999 -9999 -9999 -9999 -9999 -9999 -9999 -9999 -9999 -9999 -9999 -9999 -9999 -9999 -9999 -9999 -9999 -9999 -9999 -9999 -9999 -9999 -9999 -9999 -9999 -9999 -9999 -9999 -9999 -9999 -9999 -9999 -9999 -9999 -9999 -9999 -9999 -9999 -9999 -9999 -9999 -9999 -9999 -9999 -9999 -9999 -9999 -9999 -9999
-9999 -9999 -9999 -9999 -9999 121 109 104 104 103 101 94 90 79 73 71 81 81 74 72 66 67 63 63 77 91 93 88 101 101 108 103 107 110 95 84 79 72 74 71 61 62 66 67 66 64 61 55 58 65 63 65 63 62 62 61 59 58 57 58 58 58 56 56 57 55 55 54 53 49 46 39 39 49 58 57 56 55 55 55 56 57 56 -9999 -9999 -9999 -9999 -9999 -9999 -9999 -9999 -9999 -9999 -9999 -9999 -9999 -9999 -9999 -9999 -9999 -9999 -9999 -9999 -9999 -9999 -9999 -9999 -9999 -9999 -9999 -9999 -9999 -9999 -9999 -9999 -9999 -9999 -9999 -9999 -9999 -9999 -9999 -9999 -9999 -9999 -9999 -9999 -9999 -9999 -9999 -9999 -9999 -9999 -9999 -9999 -9999 -9999 -9999 -9999 -9999 -9999 -9999 -9999 -9999 -9999 -9999 -9999 -9999 -9999 -9999 -9999 -9999 -9999 -9999 -9999 -9999 -9999 -9999 -9999 -9999 -9999 -9999 -9999 -9999 -9999 -9999 -9999 -9999 -9999 -9999 -9999 -9999 -9999 -9999 -9999 -9999 -9999 -9999 -9999 -9999 -9999 -9999 -9999 -9999 -9999 -9999 -9999 -9999 -9999 -9999 -9999 -9999 -9999 -9999 -9999 -9999 -9999 -9999 -9999 -9999 -9999 -9999 -9999 -9999 -9999 -9999 -9999 -9999 -9999 -9999 -9999 -9999 -9999 -9999 -9999
-9999 -9999 -9999 -9999 -9999 119 118 111 107 105 106 101 99 91 81 72 69 69 69 70 68 65 63 62 66 70 75 94 92 106 106 94 111 107 97 101 99 87 80 75 72 64 65 63 63 64 65 66 68 65 65 65 63 61 61 62 60 59 60 59 59 58 58 57 60 56 54 53 53 52 50 47 39 41 57 59 57 57 56 54 53 -9999 -9999 -9999 -9999 -9999 -9999 -9999 -9999 -9999 -9999 -9999 -9999 -9999 -9999 -9999 -9999 -9999 -9999 -9999 -9999 -9999 -9999 -9999 -9999 -9999 -9999 -9999 -9999 -9999 -9999 -9999 -9999 -9999 -9999 -9999 -9999 -9999 -9999 -9999 -9999 -9999 -9999 -9999 -9999 -9999 -9999 -9999 -9999 -9999 -9999 -9999 -9999 -9999 -9999 -9999 -9999 -9999 -9999 -9999 -9999 -9999 -9999 -9999 -9999 -9999 -9999 -9999 -9999 -9999 -9999 -9999 -9999 -9999 -9999 -9999 -9999 -9999 -9999 -9999 -9999 -9999 -9999 -9999 -9999 -9999 -9999 -9999 -9999 -9999 -9999 -9999 -9999 -9999 -9999 -9999 -9999 -9999 -9999 -9999 -9999 -9999 -9999 -9999 -9999 -9999 -9999 -9999 -9999 -9999 -9999 -9999 -9999 -9999 -9999 -9999 -9999 -9999 -9999 -9999 -9999 -9999 -9999 -9999 -9999 -9999 -9999 -9999 -9999 -9999 -9999 -9999 -9999 -9999 -9999
-9999 -9999 -9999 -9999 -9999 -9999 125 120 109 103 100 92 84 78 83 82 76 76 75 81 83 79 71 63 66 64 70 82 90 102 100 94 112 111 115 112 102 97 87 72 74 72 70 72 73 69 69 67 67 66 64 66 64 64 63 62 60 60 59 60 62 58 59 58 57 57 55 54 54 53 52 52 45 38 54 59 57 58 -9999 -9999 -9999 -9999 -9999 -9999 -9999 -9999 -9999 -9999 -9999 -9999 -9999 -9999 -9999 -9999 -9999 -9999 -9999 -9999 -9999 -9999 -9999 -9999 -9999 -9999 -9999 -9999 -9999 -9999 -9999 -9999 -9999 -9999 -9999 -9999 -9999 -9999 -9999 -9999 -9999 -9999 -9999 -9999 -9999 -9999 -9999 -9999 -9999 -9999 -9999 -9999 -9999 -9999 -9999 -9999 -9999 -9999 -9999 -9999 -9999 -9999 -9999 -9999 -9999 -9999 -9999 -9999 -9999 -9999 -9999 -9999 -9999 -9999 -9999 -9999 -9999 -9999 -9999 -9999 -9999 -9999 -9999 -9999 -9999 -9999 -9999 -9999 -9999 -9999 -9999 -9999 -9999 -9999 -9999 -9999 -9999 -9999 -9999 -9999 -9999 -9999 -9999 -9999 -9999 -9999 -9999 -9999 -9999 -9999 -9999 -9999 -9999 -9999 -9999 -9999 -9999 -9999 -9999 -9999 -9999 -9999 -9999 -9999 -9999 -9999 -9999 -9999 -9999 -9999 -9999 -9999 -9999 -9999 -9999 -9999 -9999
-9999 -9999 -9999 -9999 -9999 -9999 -9999 117 96 91 91 89 87 99 97 86 81 80 84 87 79 78 75 67 64 65 65 75 95 94 90 94 105 108 115 111 105 100 91 74 71 73 68 68 72 69 70 67 66 66 64 65 63 63 64 61 60 61 59 59 59 58 58 56 55 55 54 53 54 53 53 53 46 40 46 54 -9999 -9999 -9999 -9999 -9999 -9999 -9999 -9999 -9999 -9999 -9999 -9999 -9999 -9999 -9999 -9999 -9999 -9999 -9999 -9999 -9999 -9999 -9999 -9999 -9999 -9999 -9999 -9999 -9999 -9999 -9999 -9999 -9999 -9999 -9999 -9999 -9999 -9999 -9999 -9999 -9999 -9999 -9999 -9999 -9999 -9999 -9999 -9999 -9999 -9999 -9999 -9999 -9999 -9999 -9999 -9999 -9999 -9999 -9999 -9999 -9999 -9999 -9999 -9999 -9999 -9999 -9999 -9999 -9999 -9999 -9999 -9999 -9999 -9999 -9999 -9999 -9999 -9999 -9999 -9999 -9999 -9999 -9999 -9999 -9999 -9999 -9999 -9999 -9999 -9999 -9999 -9999 -9999 -9999 -9999 -9999 -9999 -9999 -9999 -9999 -9999 -9999 -9999 -9999 -9999 -9999 -9999 -9999 -9999 -9999 -9999 -9999 -9999 -9999 -9999 -9999 -9999 -9999 -9999 -9999 -9999 -9999 -9999 -9999 -9999 -9999 -9999 -9999 -9999 -9999 -9999 -9999 -9999 -9999 -9999 -9999 -9999 -9999 -9999
-9999 -9999 -9999 -9999 -9999 -9999 -9999 -9999 106 106 103 106 101 103 105 95 88 88 82 79 75 75 75 74 65 61 61 62 77 85 80 98 100 99 104 102 100 91 83 74 75 72 69 69 69 67 68 67 67 66 66 63 63 62 61 61 60 62 60 59 59 58 57 55 55 53 54 54 52 52 52 51 49 44 -9999 -9999 -9999 -9999 -9999 -9999 -9999 -9999 -9999 -9999 -9999 -9999 -9999 -9999 -9999 -9999 -9999 -9999 -9999 -9999 -9999 -9999 -9999 -9999 -9999 -9999 -9999 -9999 -9999 -9999 -9999 -9999 -9999 -9999 -9999 -9999 -9999 -9999 -9999 -9999 -9999 -9999 -9999 -9999 -9999 -9999 -9999 -9999 -9999 -9999 -9999 -9999 -9999 -9999 -9999 -9999 -9999 -9999 -9999 -9999 -9999 -9999 -9999 -9999 -9999 -9999 -9999 -9999 -9999 -9999 -9999 -9999 -9999 -9999 -9999 -9999 -9999 -9999 -9999 -9999 -9999 -9999 -9999 -9999 -9999 -9999 -9999 -9999 -9999 -9999 -9999 -9999 -9999 -9999 -9999 -9999 -9999 -9999 -9999 -9999 -9999 -9999 -9999 -9999 -9999 -9999 -9999 -9999 -9999 -9999 -9999 -9999 -9999 -9999 -9999 -9999 -9999 -9999 -9999 -9999 -9999 -9999 -9999 -9999 -9999 -9999 -9999 -9999 -9999 -9999 -9999 -9999 -9999 -9999 -9999 -9999 -9999 -9999 -9999 -9999 -9999
-9999 -9999 -9999 -9999 -9999 -9999 -9999 -9999 106 101 106 111 115 111 103 101 103 100 85 76 78 76 73 77 66 61 59 59 62 74 90 94 91 94 92 94 87 81 74 72 74 70 70 69 68 70 65 66 65 66 66 64 62 63 61 59 61 60 61 59 57 56 56 56 54 51 51 50 47 50 48 -9999 -9999 -9999 -9999 -9999 -9999 -9999 -9999 -9999 -9999 -9999 -9999 -9999 -9999 -9999 -9999 -9999 -9999 -9999 -9999 -9999 -9999 -9999 -9999 -9999 -9999 -9999 -9999 -9999 -9999 -9999 -9999 -9999 -9999 -9999 -9999 -9999 -9999 -9999 -9999 -9999 -9999 -9999 -9999 -9999 -9999 -9999 -9999 -9999 -9999 -9999 -9999 -9999 -9999 -9999 -9999 -9999 -9999 -9999 -9999 -9999 -9999 -9999 -9999 -9999 -9999 -9999 -9999 -9999 -9999 -9999 -9999 -9999 -9999 -9999 -9999 -9999 -9999 -9999 -9999 -9999 -9999 -9999 -9999 -9999 -9999 -9999 -9999 -9999 -9999 -9999 -9999 -9999 -9999 -9999 -9999 -9999 -9999 -9999 -9999 -9999 -9999 -9999 -9999 -9999 -9999 -9999 -9999 -9999 -9999 -9999 -9999 -9999 -9999 -9999 -9999 -9999 -9999 -9999 -9999 -9999 -9999 -9999 -9999 -9999 -9999 -9999 -9999 -9999 -9999 -9999 -9999 -9999 -9999 -9999 -9999 -9999 -9999 -9999 -9999 -9999 -9999 -9999 -9999
-9999 -9999 -9999 -9999 -9999 -9999 -9999 -9999 -9999 103 94 95 99 100 95 95 94 92 80 77 75 74 72 73 68 65 64 59 59 66 89 83 96 94 88 83 75 70 70 69 70 68 72 74 71 67 66 64 62 64 63 63 62 60 60 59 61 60 58 57 57 55 53 54 53 53 52 52 51 -9999 -9999 -9999 -9999 -9999 -9999 -9999 -9999 -9999 -9999 -9999 -9999 -9999 -9999 -9999 -9999 -9999 -9999 -9999 -9999 -9999 -9999 -9999 -9999 -9999 -9999 -9999 -9999 -9999 -9999 -9999 -9999 -9999 -9999 -9999 -9999 -9999 -9999 -9999 -9999 -9999 -9999 -9999 -9999 -9999 -9999 -9999 -9999 -9999 -9999 -9999 -9999 -9999 -9999 -9999 -9999 -9999 -9999 -9999 -9999 -9999 -9999 -9999 -9999 -9999 -9999 -9999 -9999 -9999 -9999 -9999 -9999 -9999 -9999 -9999 -9999 -9999 -9999 -9999 -9999 -9999 -9999 -9999 -9999 -9999 -9999 -9999 -9999 -9999 -9999 -9999 -9999 -9999 -9999 -9999 -9999 -9999 -9999 -9999 -9999 -9999 -9999 -9999 -9999 -9999 -9999 -9999 -9999 -9999 -9999 -9999 -9999 -9999 -9999 -9999 -9999 -9999 -9999 -9999 -9999 -9999 -9999 -9999 -9999 -9999 -9999 -9999 -9999 -9999 -9999 -9999 -9999 -9999 -9999 -9999 -9999 -9999 -9999 -9999 -9999 -9999 -9999 -9999 -9999 -9999 -9999
-9999 -9999 -9999 -9999 -9999 -9999 -9999 -9999 -9999 -9999 106 96 92 90 98 92 87 83 83 88 81 78 74 72 71 67 64 60 55 60 75 82 86 83 78 70 68 66 66 66 69 67 67 69 69 67 66 64 63 64 63 64 63 61 59 59 57 57 54 54 56 58 54 53 54 53 -9999 -9999 -9999 -9999 -9999 -9999 -9999 -9999 -9999 -9999 -9999 -9999 -9999 -9999 -9999 -9999 -9999 -9999 -9999 -9999 -9999 -9999 -9999 -9999 -9999 -9999 -9999 -9999 -9999 -9999 -9999 -9999 -9999 -9999 -9999 -9999 -9999 -9999 -9999 -9999 -9999 -9999 -9999 -9999 -9999 -9999 -9999 -9999 -9999 -9999 -9999 -9999 -9999 -9999 -9999 -9999 -9999 -9999 -9999 -9999 -9999 -9999 -9999 -9999 -9999 -9999 -9999 -9999 -9999 -9999 -9999 -9999 -9999 -9999 -9999 -9999 -9999 -9999 -9999 -9999 -9999 -9999 -9999 -9999 -9999 -9999 -9999 -9999 -9999 -9999 -9999 -9999 -9999 -9999 -9999 -9999 -9999 -9999 -9999 -9999 -9999 -9999 -9999 -9999 -9999 -9999 -9999 -9999 -9999 -9999 -9999 -9999 -9999 -9999 -9999 -9999 -9999 -9999 -9999 -9999 -9999 -9999 -9999 -9999 -9999 -9999 -9999 -9999 -9999 -9999 -9999 -9999 -9999 -9999 -9999 -9999 -9999 -9999 -9999 -9999 -9999 -9999 -9999 -9999 -9999 -9999 -9999 -9999 -9999
-9999 -9999 -9999 -9999 -9999 -9999 -9999 -9999 -9999 -9999 -9999 -9999 93 86 88 90 89 92 95 91 88 93 86 80 73 66 63 58 58 57 66 78 76 73 70 67 66 64 64 65 66 66 66 67 67 69 66 65 65 64 62 62 63 61 62 58 58 58 55 53 52 50 50 52 -9999 -9999 -9999 -9999 -9999 -9999 -9999 -9999 -9999 -9999 -9999 -9999 -9999 -9999 -9999 -9999 -9999 -9999 -9999 -9999 -9999 -9999 -9999 -9999 -9999 -9999 -9999 -9999 -9999 -9999 -9999 -9999 -9999 -9999 -9999 -9999 -9999 -9999 -9999 -9999 -9999 -9999 -9999 -9999 -9999 -9999 -9999 -9999 -9999 -9999 -9999 -9999 -9999 -9999 -9999 -9999 -9999 -9999 -9999 -9999 -9999 -9999 -9999 -9999 -9999 -9999 -9999 -9999 -9999 -9999 -9999 -9999 -9999 -9999 -9999 -9999 -9999 -9999 -9999 -9999 -9999 -9999 -9999 -9999 -9999 -9999 -9999 -9999 -9999 -9999 -9999 -9999 -9999 -9999 -9999 -9999 -9999 -9999 -9999 -9999 -9999 -9999 -9999 -9999 -9999 -9999 -9999 -9999 -9999 -9999 -9999 -9999 -9999 -9999 -9999 -9999 -9999 -9999 -9999 -9999 -9999 -9999 -9999 -9999 -9999 -9999 -9999 -9999 -9999 -9999 -9999 -9999 -9999 -9999 -9999 -9999 -9999 -9999 -9999 -9999 -9999 -9999 -9999 -9999 -9999 -9999 -9999 -9999 -9999 -9999 -9999
-9999 -9999 -9999 -9999 -9999 -9999 -9999 -9999 -9999 -9999 -9999 -9999 -9999 82 88 101 105 99 100 102 102 107 97 88 74 70 64 58 60 58 61 68 68 70 67 67 65 64 62 63 64 66 67 66 65 64 63 62 64 64 63 62 63 61 63 61 59 58 57 55 55 54 -9999 -9999 -9999 -9999 -9999 -9999 -9999 -9999 -9999 -9999 -9999 -9999 -9999 -9999 -9999 -9999 -9999 -9999 -9999 -9999 -9999 -9999 -9999 -9999 -9999 -9999 -9999 -9999 -9999 -9999 -9999 -9999 -9999 -9999 -9999 -9999 -9999 -9999 -9999 -9999 -9999 -9999 -9999 -9999 -9999 -9999 -9999 -9999 -9999 -9999 -9999 -9999 -9999 -9999 -9999 -9999 -9999 -9999 -9999 -9999 -9999 -9999 -9999 -9999 -9999 -9999 -9999 -9999 -9999 -9999 -9999 -9999 -9999 -9999 -9999 -9999 -9999 -9999 -9999 -9999 -9999 -9999 -9999 -9999 -9999 -9999 -9999 -9999 -9999 -9999 -9999 -9999 -9999 -9999 -9999 -9999 -9999 -9999 -9999 -9999 -9999 -9999 -9999 -9999 -9999 -9999 -9999 -9999 -9999 -9999 -9999 -9999 -9999 -9999 -9999 -9999 -9999 -9999 -9999 -9999 -9999 -9999 -9999 -9999 -9999 -9999 -9999 -9999 -9999 -9999 -9999 -9999 -9999 -9999 -9999 -9999 -9999 -9999 -9999 -9999 -9999 -9999 -9999 -9999 -9999 -9999 -9999 -9999 -9999 -9999 -9999 -9999 -9999
