NCOLS 212
NROWS 99
XLLCORNER -83.6916666664
YLLCORNER 34.5833333333
CELLSIZE 0.00833333333316012 
NODATA_value -9999 
-9999 -9999 -9999 -9999 -9999 -9999 630 548 578 571 596 593 578 546 541 519 536 566 587 582 669 753 797 696 701 634 612 680 693 707 801 786 764 889 905 1032 931 841 684 696 671 697 620 593 596 617 631 619 667 804 867 731 814 881 1027 1101 934 827 778 742 762 690 705 706 791 804 863 843 850 900 1017 1020 1096 1169 1254 1266 1387 1570 1464 1276 1213 1302 1204 1184 1214 1407 1563 1442 1212 1128 991 971 1203 1160 1008 1024 1165 1303 1444 1560 1513 1438 1396 1287 1123 972 1051 1143 1283 1365 1378 1510 1480 1458 1434 1314 1225 1179 1147 1111 1095 1002 856 787 771 725 705 704 738 803 748 676 678 664 656 660 662 654 630 632 640 647 675 687 706 732 729 860 913 857 907 909 826 747 711 716 682 679 668 682 703 727 687 671 649 687 804 794 790 880 1104 999 758 681 704 560 404 358 383 357 349 384 366 349 337 338 334 328 317 273 270 269 283 321 331 316 284 299 294 279 268 271 285 304 -9999 -9999 -9999 -9999 -9999 -9999 -9999 -9999
-9999 -9999 -9999 -9999 -9999 -9999 584 575 571 609 638 674 633 553 536 521 522 541 547 599 587 651 697 637 616 602 648 833 914 895 1000 954 867 978 1123 1162 1011 804 745 849 710 774 735 662 653 651 657 616 657 741 707 700 867 989 1003 924 815 732 683 678 685 707 758 777 812 855 819 841 917 977 1113 1188 1139 1154 1295 1397 1470 1583 1553 1404 1397 1402 1255 1334 1252 1465 1648 1394 1196 1078 960 1092 1255 1257 1122 1031 1116 1220 1386 1478 1317 1219 1171 1140 1085 980 1091 1163 1258 1455 1517 1462 1301 1236 1294 1245 1096 1072 1032 1005 1077 1026 964 924 882 781 776 706 671 680 667 663 654 655 636 634 634 634 625 628 634 635 638 684 669 678 735 799 853 783 786 767 797 794 679 668 668 671 667 682 692 701 684 674 717 803 797 838 872 952 976 919 765 627 549 492 425 402 386 360 361 360 356 342 329 327 345 348 315 292 273 258 277 311 326 306 280 302 313 297 267 278 293 -9999 -9999 -9999 -9999 -9999 -9999 -9999 -9999 -9999
-9999 -9999 -9999 -9999 -9999 -9999 617 602 592 649 691 784 798 608 542 543 553 570 624 656 645 633 623 607 620 615 676 869 848 851 1029 1200 1126 1173 1333 1191 1005 918 933 917 747 906 876 821 741 669 663 613 643 673 630 709 740 840 789 773 739 658 665 748 734 708 804 863 849 863 885 948 1024 1130 1224 1349 1236 1172 1269 1323 1417 1493 1560 1607 1533 1439 1457 1498 1389 1621 1665 1450 1280 1081 1032 1202 1383 1414 1194 1070 1286 1386 1606 1459 1356 1294 1291 1282 1162 1007 1114 1264 1387 1479 1360 1215 1109 1076 1075 1056 1014 1030 1011 987 953 966 1022 912 810 835 786 748 694 683 667 720 679 678 655 639 632 628 626 636 652 639 631 648 648 665 715 698 706 705 779 706 685 697 676 666 651 654 681 662 668 683 679 688 790 859 834 848 928 911 890 904 657 503 428 392 390 384 367 347 348 347 351 321 311 317 320 317 325 318 300 285 262 311 314 283 283 312 315 295 264 290 305 -9999 -9999 -9999 -9999 -9999 -9999 -9999 -9999 -9999
-9999 -9999 -9999 -9999 -9999 -9999 638 610 632 649 720 842 790 638 575 523 536 553 580 569 607 676 644 649 692 714 641 725 719 895 1083 1192 1197 1267 1274 1239 1183 1054 1094 1058 870 891 1049 877 750 763 709 662 666 650 637 645 681 701 703 666 660 650 684 711 708 772 867 1006 920 967 992 1041 1072 1170 1376 1495 1326 1262 1298 1289 1340 1422 1570 1652 1632 1668 1653 1612 1608 1727 1629 1444 1254 1108 1022 1230 1360 1461 1258 1116 1216 1447 1684 1583 1556 1447 1469 1348 1208 1053 1119 1292 1406 1325 1199 1113 1016 1010 1007 1055 1075 1051 1008 997 955 890 922 872 799 762 746 758 705 677 728 700 678 669 657 642 635 632 627 639 660 667 643 628 639 650 650 660 692 719 709 699 666 659 654 666 665 664 696 675 667 669 677 690 792 837 832 851 874 851 872 909 778 544 446 400 367 362 355 354 341 334 326 322 338 303 292 292 303 313 317 298 286 288 285 292 282 291 302 301 274 286 297 -9999 -9999 -9999 -9999 -9999 -9999 -9999 -9999 -9999
-9999 -9999 -9999 -9999 -9999 -9999 695 643 752 743 789 802 808 707 590 531 569 595 632 638 577 630 615 655 687 793 658 760 755 898 924 1083 1075 1125 1168 1120 1148 1217 1130 1020 990 938 1012 891 761 739 677 727 859 782 701 632 644 633 645 663 727 670 666 714 789 816 811 888 971 1014 1078 1134 1248 1219 1409 1429 1413 1368 1453 1494 1502 1563 1542 1516 1429 1493 1638 1797 1824 1714 1543 1332 1190 1087 1032 1072 1271 1403 1393 1229 1272 1441 1621 1739 1693 1599 1577 1420 1179 1090 1180 1274 1291 1140 1050 1015 999 992 1018 1124 1228 1111 1101 1104 973 847 801 821 863 769 703 707 747 764 752 682 659 654 646 643 642 631 629 641 660 694 673 651 639 637 643 665 702 688 672 664 653 661 664 680 712 688 663 671 676 697 673 708 791 818 811 833 797 842 805 868 722 528 441 378 357 343 345 343 335 323 337 346 326 316 311 302 298 318 332 326 293 252 262 264 283 275 274 289 269 267 -9999 -9999 -9999 -9999 -9999 -9999 -9999 -9999 -9999 -9999
-9999 -9999 -9999 -9999 -9999 -9999 726 694 790 902 861 736 724 674 608 549 568 618 649 720 593 592 608 607 688 812 756 678 736 806 828 931 904 950 994 982 1136 1232 1260 1137 1147 1109 1009 883 798 725 744 813 1037 898 719 693 658 628 741 838 834 784 694 713 712 784 948 1002 1004 972 1051 1053 1121 1287 1374 1236 1235 1275 1456 1464 1414 1445 1418 1402 1301 1461 1645 1779 1799 1602 1428 1330 1301 1195 1113 1148 1108 1264 1485 1386 1344 1521 1671 1730 1563 1500 1442 1333 1127 1158 1382 1401 1229 1059 1007 993 998 1020 1025 1160 1211 1078 997 1036 905 857 835 773 800 790 719 828 909 793 689 667 660 662 658 649 643 633 648 649 661 661 695 685 674 662 643 656 671 664 657 652 657 671 694 714 725 685 669 675 694 697 691 736 760 791 817 765 806 777 662 637 490 426 382 359 356 341 319 331 337 335 345 337 334 339 323 320 305 301 327 298 281 284 266 270 287 285 272 265 254 267 -9999 -9999 -9999 -9999 -9999 -9999 -9999 -9999 -9999 -9999
-9999 -9999 -9999 -9999 -9999 -9999 835 784 902 955 760 719 708 624 604 562 625 721 675 640 613 564 570 679 664 742 893 754 721 694 760 829 892 866 896 1032 1042 1180 1336 1336 1295 1114 1115 1066 919 850 845 916 1106 896 849 828 662 651 677 741 695 701 663 672 702 806 912 958 930 1082 1089 977 1210 1332 1238 1151 1165 1318 1459 1311 1323 1327 1392 1197 1289 1343 1542 1623 1735 1732 1643 1599 1430 1186 1313 1325 1252 1182 1266 1478 1512 1469 1638 1751 1610 1462 1370 1309 1143 1205 1410 1342 1186 1026 1010 1038 1119 1054 987 1073 1061 1040 946 1014 961 927 852 807 775 746 757 850 737 691 659 660 659 684 680 649 632 642 665 676 711 697 671 700 776 679 640 650 656 651 654 658 667 659 676 697 694 691 682 695 717 672 675 741 817 779 748 780 785 645 541 439 372 355 353 348 338 328 320 313 332 337 331 313 330 341 329 323 315 299 271 291 289 296 288 261 254 279 300 283 254 269 -9999 -9999 -9999 -9999 -9999 -9999 -9999 -9999 -9999 -9999
-9999 -9999 -9999 -9999 -9999 -9999 993 925 892 865 725 724 652 583 573 605 733 714 630 598 588 573 603 756 815 783 843 833 840 764 788 783 831 948 929 1058 1115 1237 1243 1334 1320 1284 1344 1203 1069 1049 1100 1038 988 846 839 756 707 679 646 636 649 661 670 685 711 786 840 849 978 1073 988 954 1174 1298 1155 1076 1149 1342 1308 1183 1159 1327 1306 1128 1176 1406 1473 1523 1588 1748 1696 1646 1449 1256 1415 1541 1473 1360 1261 1409 1575 1646 1662 1734 1642 1558 1505 1333 1195 1325 1285 1116 1027 1041 1114 1143 1136 1027 977 967 1021 1012 907 866 896 873 809 786 813 864 835 713 667 662 673 660 668 670 661 646 636 647 671 708 758 784 723 696 682 678 648 646 648 651 661 666 681 680 672 678 677 696 703 690 666 658 676 747 771 745 743 819 645 505 404 378 355 361 329 330 334 311 316 327 313 299 298 321 330 326 307 284 297 265 270 280 280 308 287 271 261 254 290 283 282 -9999 -9999 -9999 -9999 -9999 -9999 -9999 -9999 -9999 -9999 -9999
-9999 -9999 -9999 -9999 -9999 -9999 1071 782 670 692 703 690 589 655 627 683 762 703 607 577 591 616 647 720 839 971 1003 1048 959 956 1009 869 1003 1118 1017 1023 1041 1070 1169 1259 1274 1337 1362 1247 1133 991 921 862 883 771 720 714 673 689 643 648 647 649 675 658 720 747 773 969 966 905 870 1076 1157 1079 1063 1013 1187 1177 1255 1155 1096 1264 1068 1146 1236 1342 1348 1356 1449 1536 1622 1631 1480 1315 1394 1610 1646 1569 1348 1506 1647 1749 1763 1676 1606 1568 1457 1345 1260 1264 1119 1009 994 1124 1102 999 1015 1138 1082 1028 953 933 882 899 831 809 812 823 787 789 709 674 702 693 699 677 640 636 640 704 672 695 651 659 684 706 762 705 680 664 643 649 660 660 663 669 677 671 671 669 678 691 688 659 636 651 665 766 709 706 799 816 553 405 347 354 329 333 326 295 306 302 295 312 296 300 289 297 304 310 291 275 277 267 292 294 260 273 290 292 295 286 247 257 271 -9999 -9999 -9999 -9999 -9999 -9999 -9999 -9999 -9999 -9999 -9999
-9999 -9999 -9999 -9999 -9999 -9999 884 666 823 700 679 609 643 621 700 818 722 642 648 634 571 589 732 814 805 801 921 999 1020 1110 1153 1112 1035 1224 1253 1267 1311 1249 1245 1317 1280 1316 1419 1323 1165 967 805 753 753 727 696 681 733 732 676 671 741 702 672 652 667 665 680 772 768 830 987 1087 1011 852 914 1000 1202 1042 1109 1046 1052 964 961 1117 1085 1142 1203 1281 1384 1431 1565 1660 1544 1392 1457 1599 1712 1522 1479 1715 1710 1780 1755 1636 1584 1491 1454 1349 1333 1199 1067 996 985 1121 937 893 919 985 1154 1150 1038 992 939 945 902 885 924 796 746 698 682 692 686 677 663 651 639 640 694 781 718 728 723 716 661 666 694 748 699 661 651 647 639 642 643 652 659 655 659 656 667 681 678 666 640 654 625 675 681 756 825 719 514 451 367 328 322 312 307 319 342 326 309 309 301 314 305 294 296 302 280 280 303 310 313 292 282 261 258 287 299 281 259 240 248 -9999 -9999 -9999 -9999 -9999 -9999 -9999 -9999 -9999 -9999 -9999
-9999 -9999 -9999 -9999 -9999 -9999 701 740 776 737 665 650 720 653 716 838 766 733 670 608 586 605 658 674 674 792 905 858 904 975 1035 1114 1237 1291 1233 1110 1194 1122 1075 1201 1042 1069 1272 1235 1061 964 923 820 750 815 816 683 718 805 739 741 731 808 721 746 666 666 684 722 790 945 1012 860 791 866 958 1002 1018 930 955 899 886 895 1045 1093 1128 1248 1249 1292 1368 1444 1589 1674 1564 1503 1487 1647 1701 1506 1530 1694 1711 1776 1716 1607 1572 1538 1466 1355 1184 1048 972 926 939 1018 1020 899 837 873 1036 1082 1077 942 887 898 843 865 817 724 697 719 710 706 672 668 652 652 657 641 700 770 768 743 780 783 760 792 730 692 688 676 668 657 644 640 640 647 645 648 664 655 664 679 695 708 647 605 602 638 698 792 811 739 681 463 367 347 320 319 341 350 341 327 320 320 317 325 322 310 309 312 299 307 312 317 308 315 297 283 254 260 267 286 280 259 -9999 -9999 -9999 -9999 -9999 -9999 -9999 -9999 -9999 -9999 -9999 -9999
-9999 -9999 -9999 -9999 -9999 -9999 756 874 763 709 699 754 806 710 776 911 827 747 684 636 594 615 643 706 669 687 763 829 1017 925 851 1028 1115 1170 1079 917 996 957 939 1050 914 961 1061 1117 1149 1072 931 934 915 953 859 704 719 756 841 825 763 768 804 742 653 668 669 674 779 730 812 753 786 964 1007 882 775 782 800 860 952 926 1065 1210 1266 1231 1263 1303 1397 1531 1637 1630 1576 1578 1599 1686 1687 1546 1608 1720 1764 1735 1636 1554 1427 1357 1298 1270 1068 1022 969 944 894 892 916 980 832 796 892 995 951 889 819 920 908 815 744 695 717 702 668 668 670 654 654 662 645 635 666 679 700 731 744 837 890 882 837 770 693 684 657 648 639 646 642 648 651 661 663 663 666 673 685 687 649 608 663 713 745 769 704 660 557 393 352 324 329 341 348 344 330 334 328 326 334 328 321 314 299 301 308 313 304 312 310 300 304 295 289 271 248 266 288 281 -9999 -9999 -9999 -9999 -9999 -9999 -9999 -9999 -9999 -9999 -9999 -9999
-9999 -9999 -9999 -9999 -9999 -9999 975 845 788 839 823 939 904 783 920 1030 941 979 835 677 602 624 632 678 781 788 768 912 984 812 778 908 934 1033 1013 834 867 822 847 873 802 824 906 1021 1188 1139 1146 1103 1047 937 805 713 758 760 905 877 825 808 726 728 663 696 681 679 742 675 702 698 715 731 896 766 831 914 909 987 1101 1072 1194 1190 1232 1383 1437 1498 1551 1551 1542 1380 1453 1571 1687 1769 1695 1609 1620 1665 1632 1572 1422 1319 1263 1155 1167 1067 964 976 923 1022 998 855 823 900 887 840 805 954 905 838 806 869 866 776 734 780 775 726 670 653 642 646 651 661 648 637 633 652 663 709 736 796 821 803 752 753 702 676 664 649 647 656 649 641 648 657 655 659 664 680 675 651 635 605 648 738 792 753 578 576 435 344 331 330 425 470 383 366 334 343 340 390 405 356 323 307 305 308 295 311 306 294 299 299 281 278 272 258 249 254 274 297 -9999 -9999 -9999 -9999 -9999 -9999 -9999 -9999 -9999 -9999 -9999 -9999
-9999 -9999 -9999 -9999 -9999 -9999 1029 1017 1022 1108 1011 1017 944 961 943 1134 1107 966 782 733 704 664 682 612 658 789 848 823 797 699 711 768 938 869 850 777 771 750 766 769 810 835 911 1013 1232 1240 1033 904 866 795 762 719 857 823 846 953 905 836 806 747 695 672 694 682 680 669 793 819 817 734 772 749 875 948 1011 1078 1138 1350 1430 1420 1352 1412 1532 1602 1497 1419 1384 1288 1358 1465 1483 1569 1663 1568 1451 1456 1406 1389 1363 1202 1076 1007 1041 974 934 905 883 904 986 857 767 798 909 883 774 853 838 852 788 800 753 763 766 736 729 750 734 680 648 674 652 650 645 661 668 652 650 698 755 827 825 779 716 690 674 661 661 649 659 655 647 651 652 646 650 665 662 661 656 629 586 643 722 678 676 697 580 441 377 385 480 472 521 521 418 379 401 418 458 559 500 368 320 315 306 314 307 299 292 292 284 284 294 292 280 276 251 246 257 -9999 -9999 -9999 -9999 -9999 -9999 -9999 -9999 -9999 -9999 -9999 -9999 -9999
-9999 -9999 -9999 -9999 -9999 -9999 1012 1015 1113 1162 1173 1188 1092 1100 1128 1171 1075 966 887 900 797 736 663 630 606 615 630 648 647 634 707 735 881 757 715 695 730 693 698 726 798 917 978 1034 1176 1213 977 855 775 761 767 799 989 991 888 1036 1091 983 883 768 698 675 784 797 705 674 733 708 889 880 858 811 849 867 920 1008 1143 1391 1409 1354 1353 1294 1362 1428 1345 1325 1267 1194 1353 1346 1328 1409 1557 1450 1295 1296 1289 1261 1361 1327 1219 1033 918 877 866 862 814 812 775 757 808 765 771 740 719 723 746 822 793 711 704 766 732 686 747 816 792 677 645 734 737 654 714 768 748 713 694 659 698 726 772 801 746 701 677 673 665 674 681 661 657 664 665 652 655 664 666 647 635 595 569 655 645 631 633 676 547 378 338 416 530 533 530 431 447 536 655 636 613 524 424 356 348 321 311 295 298 294 280 279 276 275 276 281 287 283 270 249 243 -9999 -9999 -9999 -9999 -9999 -9999 -9999 -9999 -9999 -9999 -9999 -9999 -9999
-9999 -9999 -9999 -9999 -9999 -9999 982 1015 1085 1069 1089 1137 1199 1281 1220 1075 925 861 798 746 708 657 648 687 644 615 604 631 617 606 637 647 677 695 658 698 665 699 724 737 810 826 794 848 996 1188 1077 938 801 914 905 871 1013 1069 1021 1100 1101 922 794 710 700 738 893 906 817 786 715 686 788 1006 1067 964 1083 1045 1017 1136 1222 1230 1211 1197 1227 1192 1242 1339 1241 1211 1161 1201 1289 1292 1266 1313 1447 1306 1207 1161 1169 1194 1353 1346 1182 1018 921 907 863 826 825 802 863 812 894 865 767 863 852 745 689 711 718 684 680 698 702 699 682 795 765 645 689 790 776 731 744 774 821 811 752 682 693 729 802 766 714 701 679 664 651 697 704 675 672 673 675 663 656 649 658 622 562 578 596 539 551 635 634 545 376 382 424 544 505 525 531 514 603 772 843 821 528 387 346 330 366 330 306 306 304 287 285 279 285 280 282 276 270 271 257 264 268 -9999 -9999 -9999 -9999 -9999 -9999 -9999 -9999 -9999 -9999 -9999 -9999 -9999
-9999 -9999 -9999 -9999 -9999 937 976 981 985 992 1070 1122 1154 1217 1179 1050 1025 986 812 802 707 676 788 855 716 625 635 628 624 634 610 633 631 636 639 628 630 649 664 671 723 743 792 869 1001 1102 1002 907 824 938 1055 1105 1040 1102 1122 1136 984 846 827 744 813 714 911 1099 944 981 900 727 680 743 843 1001 1059 1003 1014 1124 1062 1055 1061 1150 1164 1177 1277 1236 1183 1180 1124 1158 1209 1321 1268 1299 1331 1224 1186 1087 1077 1198 1392 1376 1182 1006 957 946 922 879 899 874 935 984 1025 921 914 831 773 731 731 700 656 662 659 660 664 656 646 652 647 647 796 848 779 785 837 833 864 824 747 718 761 778 774 724 700 692 671 676 673 682 722 693 679 682 681 671 666 642 601 564 591 649 633 553 447 459 503 386 443 472 509 549 525 577 627 722 816 781 724 603 428 349 335 316 313 320 308 297 285 306 297 297 305 309 311 305 282 280 264 247 -9999 -9999 -9999 -9999 -9999 -9999 -9999 -9999 -9999 -9999 -9999 -9999 -9999 -9999
-9999 -9999 -9999 -9999 -9999 909 903 910 914 957 1010 997 1063 1160 1290 1223 1146 973 960 1022 889 717 880 841 711 656 633 711 734 616 615 633 615 612 632 677 730 764 727 722 779 866 873 914 1061 1071 973 907 871 999 1055 1062 1134 1246 1203 1091 926 820 812 823 793 737 903 1128 1116 1041 922 705 693 700 767 870 926 907 913 1085 998 1010 1106 1106 1095 1211 1284 1208 1125 1168 1101 1184 1268 1247 1208 1213 1252 1133 1128 1103 1033 1194 1275 1167 1007 1017 1019 1025 1014 919 995 1040 1043 1024 1003 898 851 849 784 785 710 665 648 647 674 654 640 637 638 640 654 692 844 883 890 884 909 945 912 809 788 756 749 754 727 719 697 676 665 679 728 783 792 714 691 688 707 710 671 614 569 609 651 627 600 564 564 425 406 521 565 578 534 569 587 660 733 737 581 459 422 393 379 368 341 319 312 299 306 305 303 305 319 311 317 327 323 306 300 293 282 266 -9999 -9999 -9999 -9999 -9999 -9999 -9999 -9999 -9999 -9999 -9999 -9999 -9999 -9999
-9999 -9999 -9999 -9999 -9999 878 850 887 942 931 995 1074 1144 1255 1416 1329 1144 1104 1067 1074 841 843 933 843 699 647 639 714 739 647 616 654 632 627 644 708 773 766 827 934 877 910 944 923 949 904 933 992 893 932 974 1050 1187 1324 1147 943 902 972 1045 961 808 743 938 1150 1132 989 859 694 785 811 722 746 793 859 929 1011 890 993 1147 1067 1078 1200 1219 1164 1114 1110 1047 1203 1333 1237 1174 1307 1256 1156 1074 1040 1007 1085 1111 997 943 1020 1022 993 990 1005 1099 1070 1114 1041 939 872 798 783 778 707 670 658 644 645 658 643 660 673 661 651 642 672 784 878 877 873 842 843 814 788 795 791 770 749 710 691 665 693 703 738 744 829 753 718 712 737 730 698 638 611 596 647 632 608 574 595 638 580 613 599 606 561 578 579 589 658 628 443 386 344 380 343 346 346 328 321 311 316 320 316 326 328 327 333 344 334 323 311 293 276 285 276 -9999 -9999 -9999 -9999 -9999 -9999 -9999 -9999 -9999 -9999 -9999 -9999 -9999 -9999
-9999 -9999 -9999 -9999 -9999 862 870 877 943 1035 1119 1204 1256 1253 1368 1444 1358 1229 1160 992 983 978 898 781 710 677 631 698 743 678 658 676 657 629 620 624 654 758 831 810 763 797 769 842 849 765 873 1018 984 999 1004 1060 1200 1312 1099 1068 1113 1140 1105 990 790 886 1057 1223 1119 976 846 740 756 928 899 822 758 791 842 824 874 1014 1130 1046 1049 1105 1174 1106 1024 1032 1113 1251 1220 1152 1239 1387 1332 1288 1224 1079 954 964 956 953 932 1031 1019 980 982 1053 987 1059 1006 980 891 816 773 737 703 673 658 648 640 685 704 722 786 820 749 689 641 659 713 751 735 771 728 754 742 755 753 751 714 694 677 666 694 770 824 875 846 881 838 817 824 776 716 664 636 632 597 644 613 595 644 658 642 626 628 598 598 612 616 614 604 470 394 332 329 345 413 364 330 342 336 333 346 351 335 336 342 342 340 358 316 317 310 299 290 280 294 -9999 -9999 -9999 -9999 -9999 -9999 -9999 -9999 -9999 -9999 -9999 -9999 -9999 -9999 -9999
-9999 -9999 -9999 -9999 -9999 865 977 939 990 1059 1101 1142 1139 1209 1361 1496 1433 1339 1300 1180 997 891 794 744 720 660 663 743 804 788 743 735 715 682 640 619 650 717 700 694 698 689 694 723 733 801 900 1024 1068 1095 1102 1108 1109 1241 1158 1184 1200 1107 1037 1013 885 1022 1096 1181 1048 942 815 779 751 945 1043 901 912 878 815 827 814 924 933 1013 1028 1040 1076 1057 984 1085 1195 1127 1107 1199 1293 1321 1199 1105 1085 1050 969 918 921 918 926 997 1026 985 941 988 943 1097 980 880 817 768 726 689 675 659 649 641 645 660 695 744 837 840 717 662 645 649 661 667 661 675 720 739 743 781 797 820 829 847 801 803 801 916 921 908 913 869 827 802 827 759 712 670 663 630 636 659 632 654 667 665 648 628 628 622 629 615 615 642 591 372 324 311 317 305 323 332 328 333 346 349 339 349 339 339 357 369 359 322 312 298 304 300 295 285 296 -9999 -9999 -9999 -9999 -9999 -9999 -9999 -9999 -9999 -9999 -9999 -9999 -9999 -9999 -9999
-9999 -9999 -9999 -9999 -9999 892 970 995 1020 1082 1052 1076 1175 1255 1334 1462 1344 1189 1096 1113 1058 881 821 721 709 695 659 729 714 653 646 641 637 632 621 624 626 629 645 643 654 675 686 733 794 813 880 965 1179 1217 1267 1175 1108 1140 1058 1159 1211 1151 1087 983 978 1014 1050 1025 1026 947 806 926 899 967 1072 1129 1112 1032 893 949 894 833 824 870 898 990 979 966 1063 1111 1099 1063 1173 1232 1240 1164 1031 996 958 945 921 924 890 897 901 987 1029 980 959 879 873 930 923 842 823 719 692 673 668 670 659 644 675 690 731 816 886 816 702 656 663 685 731 731 760 741 777 814 860 936 927 1043 1059 932 947 932 904 929 903 831 871 828 763 705 717 665 647 644 643 682 737 716 708 702 662 637 651 627 617 576 612 619 528 521 442 341 319 305 294 301 321 324 322 329 334 332 313 323 326 334 344 331 317 295 304 295 286 305 308 303 313 -9999 -9999 -9999 -9999 -9999 -9999 -9999 -9999 -9999 -9999 -9999 -9999 -9999 -9999 -9999
-9999 -9999 -9999 -9999 -9999 947 978 1064 1059 1007 1075 1159 1235 1274 1301 1314 1178 1040 933 878 822 757 722 688 686 700 708 705 706 679 656 625 621 632 653 634 625 629 624 660 678 707 703 716 707 748 827 975 1132 1057 1076 1018 966 945 1011 1069 1239 1171 1067 1070 1122 1121 1103 1008 897 838 863 920 956 1000 1078 1206 1110 1005 996 1099 1033 921 961 920 851 882 951 978 1058 1074 1025 1102 1133 1177 1106 1042 959 942 928 909 903 904 900 890 872 961 1061 1058 976 893 850 793 839 789 791 712 711 673 658 651 662 669 673 742 740 774 869 887 824 736 707 717 785 795 855 817 795 910 994 982 1009 1065 949 864 855 916 919 873 868 763 782 781 708 659 628 636 645 650 693 758 775 722 697 668 636 602 573 538 523 511 492 424 393 418 401 354 327 320 322 303 304 308 304 301 312 309 289 314 326 309 321 308 300 294 283 283 285 290 288 296 -9999 -9999 -9999 -9999 -9999 -9999 -9999 -9999 -9999 -9999 -9999 -9999 -9999 -9999 -9999 -9999
-9999 -9999 -9999 -9999 -9999 950 1006 1058 1059 1152 1139 1158 1236 1318 1350 1340 1152 1008 873 779 737 721 715 725 713 732 759 677 655 668 668 687 671 668 655 647 656 655 633 635 656 665 660 679 727 765 808 994 976 969 946 932 877 903 978 1163 1252 1266 1184 1203 1215 1175 1012 907 886 952 1118 1051 994 1059 1106 1130 1167 1146 1218 1210 1062 980 1012 1026 973 936 969 997 1061 1076 1043 1149 1123 992 968 971 980 982 988 951 938 895 849 854 865 935 998 994 950 956 928 844 758 745 739 699 703 687 671 692 650 675 731 809 814 765 822 916 845 803 721 722 754 753 802 832 831 877 912 931 958 997 988 884 797 787 841 862 833 734 701 665 669 636 649 649 682 704 732 762 724 684 675 652 612 637 634 632 620 653 626 632 628 664 535 400 408 351 328 317 301 307 313 320 300 290 273 279 302 303 299 294 291 290 291 281 276 277 281 285 -9999 -9999 -9999 -9999 -9999 -9999 -9999 -9999 -9999 -9999 -9999 -9999 -9999 -9999 -9999 -9999
-9999 -9999 -9999 -9999 -9999 1019 999 1042 1210 1321 1233 1281 1244 1242 1348 1207 1041 924 836 802 803 877 826 806 883 878 889 784 740 745 713 734 709 692 683 673 647 625 642 659 658 658 682 699 705 741 849 1020 882 887 799 845 938 1076 1067 1157 1344 1336 1324 1232 1179 1101 1043 984 1034 1042 1100 1183 1125 1100 1112 1170 1270 1312 1261 1180 1106 1052 1090 1058 1101 1066 1074 1035 1101 1148 1167 1168 1148 1031 980 933 920 938 919 918 886 871 871 865 850 892 928 918 888 892 855 813 725 691 685 694 725 676 651 663 649 694 800 880 928 893 840 835 798 755 733 739 722 745 799 805 854 886 895 913 951 944 887 873 784 708 710 714 713 661 653 651 649 660 671 688 751 771 783 708 693 664 653 649 670 659 660 657 648 663 683 717 725 694 535 463 397 368 339 321 334 343 335 325 315 298 296 288 270 300 284 284 278 279 284 291 281 261 269 283 -9999 -9999 -9999 -9999 -9999 -9999 -9999 -9999 -9999 -9999 -9999 -9999 -9999 -9999 -9999 -9999
-9999 -9999 -9999 -9999 -9999 953 988 1165 1318 1423 1398 1396 1326 1343 1337 1336 1145 990 1025 996 964 993 915 853 923 1016 1019 976 852 830 860 875 780 771 747 661 634 646 660 662 707 670 649 671 723 758 786 828 787 708 718 842 926 1044 1151 1322 1365 1290 1219 1180 1129 1120 1100 1089 1070 1166 1087 1206 1195 1129 1153 1257 1288 1223 1172 1170 1104 1137 1150 1145 1185 1151 1131 1046 1041 1088 1158 1085 985 990 982 940 861 885 884 888 914 900 882 833 831 861 920 892 871 827 799 729 698 668 668 690 712 691 668 664 666 787 808 825 845 955 961 870 816 782 813 805 770 776 806 806 805 866 930 933 952 985 932 853 768 754 717 699 679 743 774 789 686 695 700 705 727 759 703 647 718 746 681 655 676 672 674 683 698 748 810 829 670 487 415 399 376 357 335 323 341 348 351 333 315 296 289 277 263 279 284 279 284 292 270 273 273 266 275 -9999 -9999 -9999 -9999 -9999 -9999 -9999 -9999 -9999 -9999 -9999 -9999 -9999 -9999 -9999 -9999 -9999
-9999 -9999 -9999 -9999 -9999 1010 1059 1156 1258 1337 1482 1532 1435 1434 1377 1413 1364 1220 1181 1086 1072 1046 994 961 989 904 814 903 893 842 827 856 832 762 701 675 654 632 627 655 678 685 691 706 718 765 758 731 734 741 849 927 979 1028 1092 1189 1280 1224 1231 1146 1108 1099 1135 1125 1082 1145 1129 1130 1185 1265 1292 1344 1267 1180 1190 1129 1172 1198 1168 1214 1214 1203 1154 1083 1121 1057 951 910 873 880 906 896 862 843 857 884 884 968 913 889 830 867 903 916 832 769 748 698 669 668 662 695 658 657 667 658 745 882 904 900 925 981 984 962 878 860 843 813 789 786 830 848 865 859 884 941 980 991 941 905 841 798 705 666 732 772 801 726 692 684 721 709 703 687 744 659 733 718 668 692 670 663 670 719 760 719 727 852 724 563 454 382 373 346 349 363 380 371 334 312 299 294 285 288 272 255 258 262 266 266 277 257 251 258 250 -9999 -9999 -9999 -9999 -9999 -9999 -9999 -9999 -9999 -9999 -9999 -9999 -9999 -9999 -9999 -9999 -9999
-9999 -9999 -9999 -9999 -9999 1062 1190 1225 1243 1327 1395 1398 1517 1526 1482 1545 1364 1156 1131 1097 1047 915 974 895 907 809 717 742 784 822 758 716 684 713 660 647 641 636 617 652 662 668 662 711 721 697 729 675 761 829 978 1130 1075 1117 1169 1234 1297 1181 1138 1161 1215 1179 1132 1138 1083 1084 1115 1123 1177 1213 1302 1348 1315 1198 1158 1166 1249 1233 1183 1277 1257 1181 1115 1201 1241 1187 1134 1067 920 912 906 876 880 840 838 847 871 957 947 906 856 801 861 837 793 735 699 689 658 690 687 662 651 665 708 782 839 907 937 990 1046 1075 973 943 917 891 875 857 809 797 804 828 851 865 909 956 939 968 937 815 701 682 685 715 780 764 772 788 748 671 698 725 728 629 605 595 711 700 678 631 641 679 679 680 639 644 717 828 713 569 475 409 375 356 377 385 345 356 325 319 309 309 298 287 274 274 298 277 280 272 254 254 271 269 279 -9999 -9999 -9999 -9999 -9999 -9999 -9999 -9999 -9999 -9999 -9999 -9999 -9999 -9999 -9999 -9999 -9999
-9999 -9999 -9999 -9999 -9999 1005 1137 1291 1401 1312 1371 1414 1504 1564 1446 1272 1244 1032 993 907 965 807 846 792 843 810 724 679 711 716 674 684 656 670 661 659 656 640 629 637 656 640 638 676 646 675 677 674 790 994 1105 1136 1141 1067 1056 1166 1266 1237 1239 1315 1255 1172 1187 1184 1114 1079 1074 1112 1209 1156 1296 1293 1305 1247 1198 1220 1233 1247 1246 1261 1207 1163 1157 1202 1284 1275 1256 1109 993 987 999 982 937 942 877 823 823 866 885 904 872 791 839 802 731 710 671 665 663 711 742 685 715 687 733 887 891 891 934 980 950 994 937 900 891 888 851 832 851 845 831 870 892 900 900 858 836 813 782 747 716 749 796 790 851 737 725 707 727 710 821 732 626 597 557 576 647 546 497 477 515 579 605 656 719 724 831 932 857 645 538 457 424 398 356 342 325 334 330 315 312 299 291 286 282 297 302 303 295 284 272 280 292 294 -9999 -9999 -9999 -9999 -9999 -9999 -9999 -9999 -9999 -9999 -9999 -9999 -9999 -9999 -9999 -9999 -9999 -9999
-9999 -9999 -9999 -9999 -9999 1009 1046 1139 1233 1301 1310 1297 1344 1346 1172 1016 988 905 859 810 773 755 744 709 708 671 668 694 658 663 645 637 661 645 646 639 640 638 651 641 636 653 660 667 687 643 702 793 908 1063 1066 995 1001 973 1074 1233 1382 1341 1275 1216 1255 1245 1241 1202 1122 1095 1090 1080 1130 1145 1211 1210 1256 1305 1262 1309 1298 1205 1179 1166 1140 1185 1181 1228 1268 1220 1172 1125 1086 1011 989 972 980 956 877 914 910 843 863 861 869 826 775 756 736 684 670 663 681 768 803 759 788 855 863 841 865 890 926 931 921 937 960 904 868 872 871 840 876 899 861 845 864 839 826 858 887 902 893 872 893 880 852 858 689 568 578 715 741 649 730 733 570 468 580 535 443 432 400 440 521 693 774 722 758 737 657 660 650 543 472 420 364 347 327 327 310 319 309 313 299 304 305 285 300 315 318 317 305 290 294 295 298 297 -9999 -9999 -9999 -9999 -9999 -9999 -9999 -9999 -9999 -9999 -9999 -9999 -9999 -9999 -9999 -9999 -9999 -9999
-9999 -9999 -9999 -9999 -9999 1048 1143 1107 1108 1187 1218 1232 1239 1287 1187 1119 1029 986 938 895 886 986 928 762 702 681 689 663 664 676 662 665 634 639 657 656 643 636 668 678 657 698 697 801 724 682 835 888 953 956 1034 920 935 1067 1179 1288 1288 1283 1260 1240 1303 1258 1241 1160 1115 1120 1162 1088 1119 1154 1158 1183 1232 1284 1236 1170 1298 1217 1222 1189 1218 1213 1188 1217 1229 1195 1027 1011 1056 1009 979 949 991 959 952 917 898 857 823 839 793 775 729 758 724 684 678 680 740 773 780 823 862 908 880 908 903 890 880 892 903 890 931 899 858 856 864 835 857 889 887 866 864 872 925 958 921 884 906 883 832 728 606 559 487 521 565 536 497 560 671 616 474 407 425 407 383 396 531 603 716 749 869 813 691 596 510 442 457 444 431 363 351 340 337 315 303 297 308 301 299 297 299 300 297 307 311 310 307 301 300 294 287 289 -9999 -9999 -9999 -9999 -9999 -9999 -9999 -9999 -9999 -9999 -9999 -9999 -9999 -9999 -9999 -9999 -9999 -9999
-9999 -9999 -9999 -9999 -9999 972 1145 1198 1165 1240 1289 1243 1342 1457 1403 1269 1138 1077 1119 994 971 934 867 770 691 672 712 718 764 702 702 677 679 665 693 670 674 629 636 666 735 805 792 790 715 663 685 749 745 864 875 855 984 1182 1212 1075 1070 1233 1413 1320 1275 1250 1243 1205 1154 1141 1149 1120 1125 1210 1201 1239 1236 1224 1119 1040 1181 1202 1228 1233 1220 1261 1269 1250 1282 1274 1086 958 942 953 966 935 1000 1001 960 901 841 828 823 799 783 750 715 700 704 681 693 713 772 764 749 776 803 883 904 920 909 907 906 909 864 851 861 871 847 837 845 891 932 909 871 874 900 926 937 901 863 828 732 741 654 481 434 440 528 564 497 421 450 458 425 435 395 402 381 441 532 543 605 642 777 867 802 736 735 672 491 450 430 429 356 332 335 336 324 308 303 299 293 298 287 287 301 292 283 299 305 290 298 306 308 304 306 -9999 -9999 -9999 -9999 -9999 -9999 -9999 -9999 -9999 -9999 -9999 -9999 -9999 -9999 -9999 -9999 -9999 -9999 -9999
-9999 -9999 -9999 -9999 -9999 979 991 1043 1086 1163 1130 1267 1415 1450 1368 1352 1321 1295 1245 1133 963 816 738 690 680 727 812 955 881 761 724 707 780 778 733 668 686 634 642 667 703 835 900 890 752 716 696 697 684 702 765 917 979 1042 988 1057 1126 1266 1272 1367 1431 1287 1242 1195 1176 1140 1205 1170 1158 1180 1308 1317 1212 1115 1070 1006 1157 1120 1188 1202 1146 1276 1286 1303 1315 1313 1190 999 952 930 947 940 939 922 864 869 835 809 821 797 731 735 742 728 680 669 693 738 743 731 723 758 778 878 897 938 936 919 926 949 908 918 911 902 873 877 895 911 925 929 939 936 915 929 857 673 582 510 499 528 460 394 412 457 448 520 526 409 361 363 392 436 396 362 391 469 547 580 574 678 759 794 775 648 539 527 537 435 385 364 391 339 315 311 324 309 290 296 288 286 288 280 288 289 273 288 307 285 281 286 310 309 320 -9999 -9999 -9999 -9999 -9999 -9999 -9999 -9999 -9999 -9999 -9999 -9999 -9999 -9999 -9999 -9999 -9999 -9999 -9999
-9999 -9999 -9999 -9999 -9999 1037 992 1019 998 1072 1210 1256 1275 1283 1275 1222 1325 1257 1044 949 879 783 743 740 718 711 794 888 967 838 805 768 754 705 672 658 667 630 643 667 703 848 1018 877 756 881 910 903 723 716 845 935 872 916 983 1017 1099 1169 1195 1293 1358 1228 1206 1166 1146 1159 1200 1184 1137 1213 1209 1161 1108 1046 1031 993 1014 1003 1055 1127 1058 1030 1094 1193 1288 1353 1113 1005 947 940 928 927 920 870 854 856 840 837 811 753 790 823 748 724 703 723 724 718 746 744 736 743 840 888 871 893 916 962 940 930 936 957 935 921 934 925 916 913 882 826 832 749 693 668 510 433 395 375 375 390 386 505 457 436 472 517 475 370 360 347 381 370 357 425 468 447 452 453 484 527 559 538 496 451 451 434 413 379 345 334 338 344 333 313 309 298 290 300 293 288 291 276 272 272 266 281 299 291 272 277 289 285 284 -9999 -9999 -9999 -9999 -9999 -9999 -9999 -9999 -9999 -9999 -9999 -9999 -9999 -9999 -9999 -9999 -9999 -9999 -9999
-9999 -9999 -9999 -9999 1185 1056 1011 1036 1007 1024 1125 1197 1205 1131 1109 1210 1208 1191 1134 963 865 839 785 741 819 727 703 785 923 800 714 681 675 673 668 652 654 628 651 693 742 915 985 926 885 1050 1046 807 761 742 846 906 967 966 1058 1175 1189 1163 1203 1217 1257 1275 1203 1173 1147 1175 1227 1185 1185 1143 1103 1074 1092 1098 1096 1094 975 986 990 1011 1032 988 966 1003 1043 1050 1055 1000 985 957 942 882 878 851 858 843 857 835 763 781 764 818 795 768 717 860 814 780 835 823 766 737 802 830 886 860 893 920 886 929 947 947 951 955 945 914 893 877 789 692 699 707 684 660 600 524 431 379 362 397 398 406 433 471 466 418 378 366 359 346 349 365 399 407 441 437 446 435 416 427 405 377 366 373 397 389 362 345 344 352 334 334 329 328 330 315 313 318 313 310 306 291 289 283 278 265 273 291 281 266 272 285 -9999 -9999 -9999 -9999 -9999 -9999 -9999 -9999 -9999 -9999 -9999 -9999 -9999 -9999 -9999 -9999 -9999 -9999 -9999 -9999
-9999 -9999 -9999 -9999 1172 1081 1152 1052 1068 1063 1057 1167 1137 1072 1155 1204 1122 1234 1271 1086 958 884 833 814 850 740 768 757 808 840 765 742 693 656 642 646 647 637 656 725 844 823 907 1053 1136 1067 946 936 970 923 907 901 948 1068 1195 1246 1241 1285 1291 1353 1351 1400 1261 1185 1174 1204 1184 1190 1176 1099 1074 1093 1118 1134 1196 1140 992 1024 1031 977 976 978 967 946 939 937 974 958 964 963 946 830 845 849 847 851 773 737 737 686 679 766 849 849 764 780 839 840 863 879 826 756 793 776 792 794 795 810 868 959 939 926 944 917 907 875 905 900 869 879 906 844 752 593 466 407 358 348 396 378 379 435 462 434 405 424 469 408 331 348 370 421 455 455 444 399 366 363 395 406 372 357 351 385 404 371 356 355 328 324 323 316 320 333 330 322 315 315 310 310 311 303 289 283 280 268 264 275 276 274 263 260 -9999 -9999 -9999 -9999 -9999 -9999 -9999 -9999 -9999 -9999 -9999 -9999 -9999 -9999 -9999 -9999 -9999 -9999 -9999 -9999
-9999 -9999 -9999 -9999 1180 1254 1233 1137 1076 1143 1146 1052 1088 1060 1104 1069 1069 1121 1212 1203 1121 929 862 807 769 743 806 798 750 823 794 727 699 732 684 662 650 633 670 749 744 884 1053 1113 1249 1207 1070 1044 1013 978 909 949 1024 1042 1100 1150 1217 1258 1295 1305 1278 1326 1313 1276 1211 1147 1093 1060 1062 1071 1072 1082 1100 1080 1142 1207 1171 1111 1063 1006 1046 1012 1001 967 929 922 933 979 959 938 863 769 747 809 839 745 682 684 679 644 653 687 835 874 835 862 814 830 902 847 830 817 812 828 799 798 811 836 882 926 934 928 913 871 727 595 633 800 882 808 754 651 507 484 503 431 388 350 372 388 420 421 409 420 419 436 457 360 369 388 429 407 407 377 357 350 374 357 341 357 341 345 348 345 339 338 315 315 312 302 306 316 309 322 324 319 311 308 307 296 304 291 285 273 266 277 273 265 261 259 255 269 -9999 -9999 -9999 -9999 -9999 -9999 -9999 -9999 -9999 -9999 -9999 -9999 -9999 -9999 -9999 -9999 -9999 -9999 -9999 -9999
-9999 -9999 -9999 -9999 1127 1190 1148 1075 1033 1061 1124 1201 1216 1123 1078 1040 1035 1062 1061 1143 1108 1006 930 867 871 839 924 831 821 982 934 827 818 741 686 669 639 641 677 738 829 1000 971 1045 1126 1319 1243 1103 1110 1045 984 935 1095 1200 1152 1221 1270 1292 1256 1234 1213 1221 1232 1317 1301 1207 1067 1039 971 1072 1097 1073 1077 1068 1087 1185 1143 1179 1098 1029 1141 1071 1073 1013 947 923 927 924 944 885 823 745 603 685 654 595 642 651 630 625 633 676 794 933 890 881 880 870 941 869 807 839 801 824 888 950 945 889 909 977 949 947 853 790 741 596 489 550 687 717 654 593 598 557 491 460 391 358 390 370 369 388 392 382 411 385 366 339 369 365 383 375 380 377 366 342 352 344 328 328 319 336 347 337 330 318 321 321 314 313 311 299 301 304 306 321 313 300 303 290 289 279 289 289 291 284 283 280 270 263 277 -9999 -9999 -9999 -9999 -9999 -9999 -9999 -9999 -9999 -9999 -9999 -9999 -9999 -9999 -9999 -9999 -9999 -9999 -9999 -9999 -9999
-9999 -9999 -9999 -9999 1044 1152 1076 1095 1046 1057 1168 1189 1284 1212 1112 1134 1128 1136 1098 1099 1264 1221 1030 1015 1074 972 928 828 891 952 931 924 910 838 703 681 650 629 685 833 931 890 862 939 1015 1123 1303 1215 1094 1077 985 1035 1077 1138 1134 1151 1210 1237 1207 1203 1206 1236 1253 1249 1272 1265 1278 1236 984 973 1008 1019 1061 1076 1083 1126 1084 1145 1225 1069 1017 1010 1005 1009 972 964 931 846 838 850 766 741 668 578 517 553 641 626 604 665 711 703 813 947 946 825 895 964 981 888 859 865 868 885 875 936 896 868 880 937 929 869 638 526 529 472 450 500 582 581 538 494 459 415 409 447 421 350 328 374 384 381 370 382 369 353 340 321 346 340 363 373 382 368 375 341 331 310 312 307 305 330 330 332 334 330 330 330 327 314 311 309 309 303 288 304 313 308 300 287 286 285 307 306 291 278 290 286 275 282 285 -9999 -9999 -9999 -9999 -9999 -9999 -9999 -9999 -9999 -9999 -9999 -9999 -9999 -9999 -9999 -9999 -9999 -9999 -9999 -9999 -9999
-9999 -9999 -9999 -9999 1240 1244 1224 1199 1091 1052 1194 1225 1219 1194 1216 1301 1206 1184 1170 1090 1196 1290 1211 1240 1262 1113 1032 907 1007 878 792 746 750 750 693 667 644 645 752 767 738 718 731 777 872 927 1026 1232 1222 1133 1083 1066 1024 1045 1077 1120 1219 1204 1213 1219 1196 1216 1245 1241 1252 1259 1242 1052 952 902 935 939 985 1154 1089 1083 1087 1195 1235 1110 1061 1008 947 922 902 1013 984 790 787 804 794 772 640 550 508 489 501 534 615 731 811 802 936 962 825 706 779 878 925 869 871 891 938 949 914 889 882 791 735 779 750 627 553 437 414 394 406 436 441 427 436 415 402 361 353 377 370 345 335 349 347 339 364 364 377 364 331 333 344 349 374 383 387 398 357 336 342 324 303 299 312 318 318 314 331 350 347 361 345 332 319 303 298 297 289 289 298 301 312 301 302 309 315 311 295 282 293 291 279 290 306 -9999 -9999 -9999 -9999 -9999 -9999 -9999 -9999 -9999 -9999 -9999 -9999 -9999 -9999 -9999 -9999 -9999 -9999 -9999 -9999 -9999
-9999 -9999 -9999 -9999 1410 1416 1344 1163 1206 1185 1102 1137 1172 1293 1420 1387 1206 1179 1138 1078 1122 1194 1263 1402 1372 1166 1071 1082 1038 962 922 826 753 696 694 656 648 665 695 670 685 715 778 735 765 791 902 1075 1182 1225 1107 1080 1123 1074 1054 1106 1149 1173 1167 1161 1163 1170 1207 1186 1004 924 952 921 879 912 885 919 1068 1085 1072 1067 1097 1107 1092 1095 1052 1039 984 903 863 912 917 703 550 655 712 690 603 600 604 548 415 530 619 673 744 874 924 796 660 653 739 771 832 918 913 896 981 917 840 807 810 742 573 548 512 431 423 377 373 366 381 381 361 349 366 366 365 360 339 351 367 361 346 328 323 352 367 367 359 328 325 359 380 368 357 372 366 376 374 334 308 309 314 292 307 302 312 329 352 358 355 351 363 345 324 312 303 295 286 282 292 295 298 309 315 318 321 307 297 300 290 306 297 310 -9999 -9999 -9999 -9999 -9999 -9999 -9999 -9999 -9999 -9999 -9999 -9999 -9999 -9999 -9999 -9999 -9999 -9999 -9999 -9999 -9999 -9999
-9999 -9999 -9999 -9999 1293 1279 1252 1079 1110 1178 1201 1136 1142 1230 1294 1308 1242 1218 1199 1233 1107 1138 1247 1362 1471 1404 1250 1088 935 822 780 734 723 698 663 685 646 656 674 739 821 779 819 898 811 801 850 939 1171 1120 1098 1071 1147 1187 1176 1164 1129 1154 1154 1199 1234 1207 1236 1178 1019 906 871 873 858 873 928 1063 1111 1064 1022 1034 1033 1032 1045 1098 1087 1013 985 970 847 879 716 635 529 442 507 537 530 548 496 418 386 507 570 668 777 891 876 743 620 629 750 765 931 996 990 882 916 858 786 692 662 525 451 406 397 393 393 382 364 354 374 372 367 361 360 336 322 328 325 351 369 382 357 333 337 354 372 370 339 326 380 371 377 370 369 340 350 333 344 323 316 304 297 288 300 315 336 352 346 332 336 348 342 333 326 322 319 306 294 284 280 288 305 317 326 322 319 314 310 306 304 312 315 320 -9999 -9999 -9999 -9999 -9999 -9999 -9999 -9999 -9999 -9999 -9999 -9999 -9999 -9999 -9999 -9999 -9999 -9999 -9999 -9999 -9999 -9999
-9999 -9999 -9999 -9999 1104 996 997 845 854 976 1142 1264 1168 1255 1357 1323 1230 1226 1307 1289 1167 1103 1198 1363 1480 1505 1251 1070 963 907 801 801 870 707 691 746 654 649 657 679 846 950 893 965 931 914 1057 1050 1189 1217 1146 1208 1098 1196 1226 1204 1125 1158 1171 1174 1203 1168 1160 1183 1152 1127 894 870 882 927 1069 1132 1213 1078 1053 1028 994 975 978 1073 1050 968 996 912 814 816 604 507 509 535 430 422 513 447 422 365 483 582 682 714 774 725 777 724 615 602 674 648 794 898 998 914 838 842 759 719 611 617 714 628 525 467 417 415 383 393 384 385 370 333 339 331 343 345 345 387 416 389 339 325 340 343 358 360 332 326 346 351 368 361 351 338 332 320 316 308 301 295 289 298 294 314 306 310 314 311 318 327 325 322 322 316 318 311 301 284 281 290 303 309 310 315 304 302 302 308 320 330 328 313 -9999 -9999 -9999 -9999 -9999 -9999 -9999 -9999 -9999 -9999 -9999 -9999 -9999 -9999 -9999 -9999 -9999 -9999 -9999 -9999 -9999 -9999
-9999 -9999 -9999 -9999 910 852 766 728 784 850 944 1132 1263 1191 1301 1438 1306 1382 1422 1392 1228 1109 1211 1280 1396 1416 1395 1104 970 905 891 889 761 694 727 758 662 658 678 670 816 896 1061 1081 1053 1079 1134 1239 1300 1280 1281 1238 1154 1238 1196 1145 1179 1150 1177 1225 1226 1070 933 949 924 1025 953 876 858 952 950 1068 1091 1120 1086 1058 1036 1006 959 1032 971 958 952 849 760 726 633 565 487 440 405 398 537 448 378 473 497 547 598 665 646 640 649 579 548 540 563 612 736 913 986 939 843 802 772 805 770 762 729 577 502 405 387 387 368 366 352 351 347 349 361 316 319 326 359 365 368 344 338 325 347 367 358 357 349 334 325 347 346 343 340 343 338 315 318 321 312 300 302 313 306 294 295 299 303 306 316 318 315 309 309 308 314 300 301 281 280 288 297 292 298 313 301 289 293 316 317 311 303 -9999 -9999 -9999 -9999 -9999 -9999 -9999 -9999 -9999 -9999 -9999 -9999 -9999 -9999 -9999 -9999 -9999 -9999 -9999 -9999 -9999 -9999 -9999
-9999 -9999 -9999 -9999 717 682 685 743 801 848 902 967 1184 1288 1283 1365 1356 1443 1566 1453 1283 1158 1175 1333 1368 1412 1376 1181 1088 1098 1000 955 949 803 776 758 672 668 781 722 748 931 1032 1022 1090 1137 1162 1207 1362 1362 1310 1206 1213 1202 1135 1131 1149 1220 1161 1239 1250 1176 990 942 932 923 915 874 894 909 967 944 961 994 1024 1003 1119 1125 977 920 868 855 902 750 601 586 563 602 579 464 389 365 421 360 393 452 484 492 504 532 575 676 703 546 512 537 601 700 804 839 837 814 842 908 933 834 677 531 476 430 390 386 367 383 359 363 340 325 357 349 335 333 317 334 323 338 341 352 334 341 328 352 344 344 332 322 315 306 328 331 339 359 350 346 333 323 322 322 329 323 322 326 317 301 296 309 312 305 304 300 299 301 308 308 292 286 269 280 294 287 303 295 287 285 295 306 300 303 297 -9999 -9999 -9999 -9999 -9999 -9999 -9999 -9999 -9999 -9999 -9999 -9999 -9999 -9999 -9999 -9999 -9999 -9999 -9999 -9999 -9999 -9999 -9999
-9999 -9999 -9999 -9999 650 706 753 781 857 962 1066 1155 1242 1396 1400 1253 1121 1254 1498 1492 1362 1209 1198 1299 1319 1334 1284 1396 1260 1137 980 1068 1100 878 900 737 675 660 742 793 725 920 926 1067 1113 1120 1133 1196 1188 1179 1098 1055 1133 1070 973 956 975 994 1031 1033 1018 1045 919 878 992 948 885 857 941 896 982 888 875 899 971 959 1010 1033 1038 965 911 714 699 687 567 537 500 593 542 547 529 431 357 345 414 445 485 511 633 663 631 615 589 521 482 514 570 603 638 672 738 700 689 819 804 710 557 453 392 373 375 393 364 371 358 328 315 349 352 349 359 344 327 330 320 326 318 313 301 316 329 325 320 316 303 310 314 325 336 352 364 369 349 340 342 343 352 339 334 329 327 320 311 294 284 284 305 302 293 290 289 291 296 308 303 291 273 271 291 281 286 279 281 282 303 300 284 297 297 -9999 -9999 -9999 -9999 -9999 -9999 -9999 -9999 -9999 -9999 -9999 -9999 -9999 -9999 -9999 -9999 -9999 -9999 -9999 -9999 -9999 -9999 -9999
-9999 -9999 -9999 -9999 669 683 696 747 859 929 968 1081 1259 1387 1250 1176 998 1171 1408 1461 1455 1296 1212 1256 1329 1383 1162 1206 1332 1173 1079 1098 1031 860 795 725 689 666 736 859 779 842 945 1032 1128 1113 1132 1176 1105 977 938 899 912 868 875 884 858 852 877 876 901 956 911 862 966 972 913 835 901 856 872 858 903 988 1060 957 945 932 903 868 762 721 657 618 583 419 501 508 548 556 529 459 346 384 475 564 659 708 679 635 562 575 544 464 469 584 663 604 622 732 728 620 585 651 526 491 481 395 373 348 362 380 368 345 344 315 328 336 350 359 335 308 320 318 301 291 291 286 296 329 342 319 307 301 307 324 326 338 344 364 374 358 356 336 344 361 350 338 331 318 315 320 309 300 286 282 297 305 311 300 293 284 299 291 297 291 283 275 278 273 278 279 268 276 289 289 284 293 -9999 -9999 -9999 -9999 -9999 -9999 -9999 -9999 -9999 -9999 -9999 -9999 -9999 -9999 -9999 -9999 -9999 -9999 -9999 -9999 -9999 -9999 -9999 -9999
-9999 -9999 -9999 -9999 742 739 712 728 771 820 912 1040 1191 1328 1233 1046 945 1106 1223 1295 1399 1305 1297 1311 1393 1375 1130 977 1108 1010 926 980 1018 889 850 708 660 674 698 829 868 793 859 1002 1074 1098 1105 1161 1158 1006 881 826 811 819 839 852 809 813 812 863 908 873 845 814 865 937 899 826 812 784 845 854 851 908 996 954 897 914 785 759 702 699 627 542 495 376 467 542 616 455 371 374 358 344 367 566 686 611 593 583 542 487 430 371 379 533 585 583 683 608 576 504 540 513 416 402 389 372 374 376 350 344 375 366 318 311 331 330 317 328 300 285 292 297 288 292 311 299 319 351 335 320 313 318 328 325 335 348 348 358 361 360 347 328 336 337 336 337 325 316 303 299 299 296 291 280 283 298 309 300 290 279 287 275 275 283 283 279 269 274 290 293 283 271 268 278 280 271 -9999 -9999 -9999 -9999 -9999 -9999 -9999 -9999 -9999 -9999 -9999 -9999 -9999 -9999 -9999 -9999 -9999 -9999 -9999 -9999 -9999 -9999 -9999 -9999
-9999 -9999 -9999 -9999 708 766 846 890 792 820 919 1080 1286 1262 1088 1022 890 968 1097 1239 1418 1333 1350 1366 1458 1313 1103 933 868 922 829 911 897 881 856 755 671 661 807 880 829 863 999 1062 1129 1096 1087 1128 1193 1089 982 922 815 790 785 819 809 785 814 816 840 831 791 802 925 958 943 894 866 780 782 810 839 874 873 914 880 895 765 707 657 616 575 460 382 351 438 608 569 430 343 349 346 377 467 561 538 507 570 518 490 509 466 335 370 432 457 445 481 452 436 396 401 369 346 341 339 343 341 323 328 319 324 310 302 306 309 304 306 310 302 318 318 307 326 323 329 303 299 317 321 296 308 315 331 339 334 343 340 361 366 335 329 329 314 308 307 320 315 308 304 289 289 286 289 287 278 287 298 298 291 283 280 295 283 270 280 288 277 272 283 286 288 285 273 273 280 272 -9999 -9999 -9999 -9999 -9999 -9999 -9999 -9999 -9999 -9999 -9999 -9999 -9999 -9999 -9999 -9999 -9999 -9999 -9999 -9999 -9999 -9999 -9999 -9999
-9999 -9999 -9999 -9999 703 742 840 1031 963 970 1058 1180 1191 1163 1031 909 835 977 1204 1288 1445 1216 1233 1269 1366 1164 1021 929 758 780 768 868 928 868 828 759 676 664 778 716 728 867 970 1047 1074 1085 1122 1101 1116 980 902 885 895 807 760 777 788 776 813 774 800 768 783 844 911 913 966 970 892 830 735 739 881 893 848 881 866 861 742 645 599 549 498 519 381 343 431 585 463 345 342 384 418 441 396 460 405 407 435 403 410 394 354 308 370 485 454 400 374 360 357 336 337 349 335 327 335 323 318 342 335 344 377 341 302 320 332 320 331 348 325 354 359 342 324 309 308 306 285 311 307 297 314 316 334 345 350 344 345 331 332 319 315 318 319 305 300 302 318 306 311 316 309 296 282 290 289 278 286 290 286 293 297 294 288 272 277 283 281 265 275 284 278 270 270 261 270 -9999 -9999 -9999 -9999 -9999 -9999 -9999 -9999 -9999 -9999 -9999 -9999 -9999 -9999 -9999 -9999 -9999 -9999 -9999 -9999 -9999 -9999 -9999 -9999 -9999
-9999 -9999 -9999 -9999 831 852 969 1053 1244 1131 1082 1086 1052 1064 968 886 825 983 1061 1155 1316 1088 1026 1067 1179 1183 973 858 807 749 762 859 883 830 788 719 679 669 704 664 743 904 955 1002 974 1021 1136 1054 996 901 847 805 848 799 811 759 731 780 769 749 757 737 771 866 842 899 903 834 874 842 723 727 868 881 813 836 844 804 719 602 550 525 467 431 369 360 349 403 383 347 342 344 349 425 384 332 371 396 366 324 318 314 326 368 474 430 374 354 372 395 382 358 363 376 378 360 374 378 380 379 374 358 337 322 317 320 333 352 375 356 351 363 347 327 310 312 310 298 292 314 292 301 337 322 339 345 344 342 327 322 312 313 309 308 311 317 311 304 300 297 310 318 316 305 295 289 285 271 269 266 271 278 288 284 287 277 270 274 280 270 283 295 294 276 270 264 261 -9999 -9999 -9999 -9999 -9999 -9999 -9999 -9999 -9999 -9999 -9999 -9999 -9999 -9999 -9999 -9999 -9999 -9999 -9999 -9999 -9999 -9999 -9999 -9999 -9999
-9999 -9999 -9999 1100 1108 1060 1120 1166 1113 1023 911 1026 943 1017 948 852 783 987 949 1090 1186 1028 928 1017 1094 1145 1009 848 793 777 723 721 742 731 737 722 686 648 661 707 771 836 965 1028 1002 1058 1123 1064 958 887 849 753 733 773 737 737 708 733 706 730 730 725 758 869 858 807 788 777 728 708 757 803 822 868 884 851 732 718 705 597 570 511 442 408 384 360 351 342 342 342 342 342 342 372 337 331 334 336 346 325 298 418 486 443 413 357 339 349 377 360 381 412 375 425 495 475 456 390 402 410 363 358 340 345 348 367 371 366 376 362 348 336 341 338 325 313 303 293 296 301 302 322 340 332 348 340 333 338 333 330 323 329 324 321 313 310 312 310 318 308 297 299 303 302 296 288 289 282 281 277 271 268 272 266 271 274 271 274 273 268 272 275 281 285 285 276 273 -9999 -9999 -9999 -9999 -9999 -9999 -9999 -9999 -9999 -9999 -9999 -9999 -9999 -9999 -9999 -9999 -9999 -9999 -9999 -9999 -9999 -9999 -9999 -9999 -9999
-9999 -9999 -9999 1071 1064 995 965 1049 895 895 834 1001 932 898 978 871 766 862 892 975 1077 945 917 963 913 1005 949 857 864 843 740 789 726 719 707 673 671 655 651 678 730 927 992 1140 1118 1206 1254 1201 1060 933 834 777 741 714 696 692 683 658 766 770 749 762 838 841 852 808 753 803 689 708 773 858 869 871 851 717 606 650 616 570 526 471 454 483 472 467 374 374 346 342 342 342 342 361 309 289 309 322 307 310 315 376 402 365 347 325 342 408 454 441 480 384 357 395 411 418 471 399 479 417 340 344 372 350 386 371 379 377 354 332 330 325 310 318 310 303 289 300 282 299 306 337 334 320 331 344 329 331 328 336 329 327 324 324 322 312 304 301 299 292 295 291 308 313 309 304 295 292 293 289 295 295 287 291 283 265 267 259 274 273 264 265 280 284 283 279 -9999 -9999 -9999 -9999 -9999 -9999 -9999 -9999 -9999 -9999 -9999 -9999 -9999 -9999 -9999 -9999 -9999 -9999 -9999 -9999 -9999 -9999 -9999 -9999 -9999 -9999
-9999 -9999 -9999 870 910 818 860 843 798 787 799 968 931 870 859 821 790 834 926 1013 1020 879 904 829 816 958 1061 992 989 1011 906 955 904 806 711 674 655 651 662 743 833 940 1002 1023 1059 1180 1305 1207 1119 1065 863 886 820 796 768 721 689 611 719 708 722 731 799 793 746 731 758 748 678 760 787 810 840 838 765 565 493 518 570 531 483 469 497 499 525 518 457 442 376 342 350 342 338 329 278 325 316 297 282 328 309 315 342 327 318 382 404 415 436 405 373 367 357 362 356 361 406 396 342 341 325 330 364 368 390 397 371 381 363 327 327 329 317 299 318 317 306 313 312 292 317 335 335 335 323 336 337 318 323 331 342 349 337 338 333 331 322 315 308 307 299 291 297 305 303 312 310 301 306 298 307 304 293 288 276 273 273 259 254 274 276 268 258 264 271 280 -9999 -9999 -9999 -9999 -9999 -9999 -9999 -9999 -9999 -9999 -9999 -9999 -9999 -9999 -9999 -9999 -9999 -9999 -9999 -9999 -9999 -9999 -9999 -9999 -9999 -9999
-9999 -9999 -9999 792 841 810 728 695 706 728 811 940 944 923 830 828 759 866 927 908 864 866 820 773 794 862 941 981 943 1020 1055 922 819 708 679 670 658 661 709 813 852 886 965 1003 1102 1153 1082 1060 991 971 886 894 813 800 763 725 637 583 619 654 698 701 686 644 666 716 800 696 656 691 771 765 768 759 731 593 475 467 463 402 445 413 386 419 485 463 426 392 360 346 361 339 298 256 268 308 280 261 296 319 299 312 335 306 394 368 385 424 397 361 371 368 333 356 357 383 357 360 322 315 317 335 358 360 386 407 413 393 358 340 350 342 326 322 324 309 308 303 295 289 290 315 318 332 314 327 337 328 317 328 337 358 370 370 395 366 342 335 331 315 313 305 288 290 299 303 311 315 317 317 321 321 315 291 292 278 274 271 265 257 249 256 265 269 258 275 -9999 -9999 -9999 -9999 -9999 -9999 -9999 -9999 -9999 -9999 -9999 -9999 -9999 -9999 -9999 -9999 -9999 -9999 -9999 -9999 -9999 -9999 -9999 -9999 -9999 -9999
-9999 -9999 -9999 709 868 737 688 712 793 837 880 940 945 942 938 894 785 810 859 808 789 812 748 682 774 811 846 954 875 953 909 840 797 671 675 666 665 671 706 847 939 936 967 999 1041 1040 951 862 948 879 838 818 806 783 760 684 687 649 583 549 573 587 607 682 685 646 742 656 653 650 702 710 716 624 544 492 462 434 394 363 386 366 343 379 401 376 424 365 341 326 318 297 265 265 294 281 258 283 296 305 326 370 322 313 401 440 442 377 363 402 347 337 338 360 363 335 337 333 317 304 321 384 351 363 399 409 404 377 345 344 340 327 324 313 309 303 316 312 288 294 287 325 312 313 318 335 325 315 327 334 343 398 454 493 494 465 421 372 346 324 312 308 301 295 288 298 317 308 311 324 331 335 330 310 306 299 296 289 279 265 250 257 254 257 263 -9999 -9999 -9999 -9999 -9999 -9999 -9999 -9999 -9999 -9999 -9999 -9999 -9999 -9999 -9999 -9999 -9999 -9999 -9999 -9999 -9999 -9999 -9999 -9999 -9999 -9999 -9999
-9999 -9999 -9999 704 737 666 659 742 788 884 1030 1016 949 842 923 843 794 713 781 855 743 742 700 653 703 740 757 800 888 771 711 679 667 672 684 694 665 739 847 937 1078 1063 1000 1018 953 813 835 817 824 877 740 747 711 733 720 695 681 692 625 542 531 556 604 703 593 642 738 592 597 623 677 697 685 532 402 417 429 372 361 350 359 347 326 347 353 348 456 410 349 325 310 310 293 256 252 260 287 318 328 334 371 450 338 312 346 459 408 349 325 350 340 331 333 359 360 352 329 346 308 335 367 367 348 353 375 446 417 384 351 344 327 316 327 324 324 334 328 315 303 307 280 290 299 299 314 330 317 323 335 333 336 347 383 460 519 433 395 350 333 327 324 319 314 313 287 282 297 297 296 308 311 311 314 306 302 307 298 286 279 275 275 269 263 246 256 -9999 -9999 -9999 -9999 -9999 -9999 -9999 -9999 -9999 -9999 -9999 -9999 -9999 -9999 -9999 -9999 -9999 -9999 -9999 -9999 -9999 -9999 -9999 -9999 -9999 -9999 -9999
-9999 -9999 -9999 638 650 657 696 693 747 808 966 958 872 818 873 911 736 668 720 735 698 713 675 670 717 646 691 737 819 717 685 684 684 728 845 830 679 760 795 875 920 1044 959 869 876 803 696 702 728 789 713 673 687 694 666 643 615 621 658 665 570 529 603 596 534 565 578 574 596 637 657 662 559 440 399 374 369 352 374 360 339 342 327 341 332 366 438 369 353 346 333 308 288 263 250 289 317 317 349 342 374 388 315 294 318 357 385 378 339 320 310 318 360 361 353 331 323 319 319 359 370 344 342 363 379 420 391 371 355 341 342 332 331 323 322 321 322 315 316 296 276 280 299 304 302 315 311 310 315 317 317 320 331 395 494 471 372 336 326 314 307 295 302 305 298 289 274 282 280 294 300 295 303 303 292 293 289 287 280 268 264 260 253 252 240 -9999 -9999 -9999 -9999 -9999 -9999 -9999 -9999 -9999 -9999 -9999 -9999 -9999 -9999 -9999 -9999 -9999 -9999 -9999 -9999 -9999 -9999 -9999 -9999 -9999 -9999 -9999
-9999 -9999 -9999 746 789 784 716 764 782 794 883 935 875 810 804 795 799 748 640 675 668 692 639 681 637 692 808 906 871 835 841 791 784 754 800 775 679 686 730 764 852 959 904 757 721 726 763 677 639 665 705 637 629 602 590 595 597 675 712 618 551 559 517 527 608 578 638 652 608 706 663 608 465 395 377 354 346 344 370 352 339 334 321 333 336 363 384 368 349 331 323 305 266 255 267 294 280 298 303 305 317 323 296 284 355 391 349 340 346 323 311 315 337 336 319 315 298 323 347 358 352 336 348 345 370 441 389 382 365 393 361 339 337 332 344 327 316 321 298 281 281 299 314 307 303 327 322 308 302 307 316 322 334 348 461 480 392 360 332 317 305 296 293 285 287 284 280 281 272 272 290 284 292 294 295 283 278 276 270 271 271 274 266 273 -9999 -9999 -9999 -9999 -9999 -9999 -9999 -9999 -9999 -9999 -9999 -9999 -9999 -9999 -9999 -9999 -9999 -9999 -9999 -9999 -9999 -9999 -9999 -9999 -9999 -9999 -9999 -9999
-9999 -9999 -9999 755 795 833 857 940 860 879 965 908 849 841 856 799 720 687 630 676 664 696 646 671 690 802 896 860 848 882 887 889 900 916 874 764 668 758 874 873 902 990 933 872 730 674 676 729 670 584 632 620 557 557 560 587 560 653 645 559 523 530 534 626 643 633 692 689 629 678 670 574 440 383 357 339 344 359 360 348 344 330 319 324 326 350 345 340 327 319 308 318 320 278 253 266 293 309 312 304 302 297 291 288 301 326 349 347 395 360 331 308 311 310 299 305 327 341 356 350 358 327 338 348 357 394 362 360 358 359 349 341 344 344 345 325 314 299 291 295 312 283 276 286 315 327 317 313 305 306 310 330 322 328 366 448 410 369 343 323 307 299 306 300 293 292 289 281 269 263 279 282 273 281 293 289 282 281 285 282 286 287 283 277 -9999 -9999 -9999 -9999 -9999 -9999 -9999 -9999 -9999 -9999 -9999 -9999 -9999 -9999 -9999 -9999 -9999 -9999 -9999 -9999 -9999 -9999 -9999 -9999 -9999 -9999 -9999 -9999
-9999 -9999 -9999 788 853 877 910 950 847 803 896 887 796 766 795 794 735 659 634 695 665 627 659 698 790 821 834 822 823 865 884 948 1024 987 886 726 698 765 883 783 746 810 789 824 819 720 621 628 607 558 532 533 549 546 528 544 590 686 572 529 528 565 690 665 643 678 616 600 571 587 568 488 404 378 355 344 340 343 341 354 341 336 333 313 320 354 354 343 330 329 310 298 297 258 251 260 288 286 295 286 275 281 264 276 312 337 354 348 361 352 328 305 310 300 292 310 326 345 351 335 330 323 335 366 390 389 338 367 335 336 346 347 349 341 334 318 303 314 317 321 304 286 275 290 296 299 304 311 308 301 312 320 311 318 338 350 371 347 331 320 317 314 312 309 305 304 288 276 275 270 265 270 266 276 286 289 290 291 294 297 294 294 285 281 -9999 -9999 -9999 -9999 -9999 -9999 -9999 -9999 -9999 -9999 -9999 -9999 -9999 -9999 -9999 -9999 -9999 -9999 -9999 -9999 -9999 -9999 -9999 -9999 -9999 -9999 -9999 -9999
-9999 -9999 -9999 790 922 1045 1085 1056 853 754 804 851 778 729 710 707 675 625 622 640 616 617 718 713 797 807 822 813 848 971 952 921 912 808 704 637 653 664 804 801 700 678 672 660 674 655 597 542 549 568 608 613 555 554 528 506 563 613 537 507 533 562 626 605 572 625 614 569 549 553 518 465 399 369 363 349 330 334 360 361 343 338 323 309 318 329 347 356 338 327 316 286 284 268 259 281 307 302 288 265 259 266 297 321 314 334 342 346 342 348 333 316 310 292 292 320 324 319 323 318 328 336 353 405 369 358 324 332 351 359 358 345 341 329 320 327 332 327 326 310 304 304 291 269 294 298 307 313 307 301 303 307 307 312 323 337 379 367 342 326 312 310 301 298 292 296 289 289 287 287 278 266 260 271 271 278 288 287 298 302 290 282 273 -9999 -9999 -9999 -9999 -9999 -9999 -9999 -9999 -9999 -9999 -9999 -9999 -9999 -9999 -9999 -9999 -9999 -9999 -9999 -9999 -9999 -9999 -9999 -9999 -9999 -9999 -9999 -9999 -9999
-9999 -9999 -9999 997 951 1086 1060 1035 931 764 740 754 779 803 710 625 649 608 618 648 630 657 717 835 777 788 794 820 846 781 764 760 673 636 620 611 634 641 757 749 708 631 595 591 587 585 569 539 575 617 663 650 605 620 537 493 523 511 509 548 589 655 571 547 553 577 553 549 544 541 534 520 396 370 353 345 327 324 338 336 338 350 337 312 303 325 326 334 327 315 311 293 289 265 263 300 297 284 259 253 277 293 298 305 335 366 348 352 335 321 315 306 286 286 300 306 314 319 322 323 337 351 332 323 322 321 353 361 386 362 348 338 332 333 335 325 319 314 308 316 314 308 289 277 280 300 322 327 319 306 299 303 306 313 314 318 333 323 325 313 305 297 294 287 279 280 280 274 279 287 288 278 260 269 267 271 284 281 291 293 287 278 264 -9999 -9999 -9999 -9999 -9999 -9999 -9999 -9999 -9999 -9999 -9999 -9999 -9999 -9999 -9999 -9999 -9999 -9999 -9999 -9999 -9999 -9999 -9999 -9999 -9999 -9999 -9999 -9999 -9999
-9999 -9999 -9999 1153 1188 1081 965 931 981 834 734 690 741 771 688 635 672 660 609 661 717 691 773 810 750 756 779 750 737 670 652 612 613 599 595 586 609 646 663 705 714 675 663 653 610 595 585 587 613 557 535 558 557 567 494 496 498 523 535 626 617 576 550 535 547 542 538 535 524 536 564 548 435 393 355 326 324 326 332 330 322 325 318 318 300 299 313 320 328 310 297 302 302 276 256 270 272 255 251 257 271 272 274 302 324 360 355 335 319 311 300 311 306 291 294 312 325 321 321 319 327 325 312 321 336 322 346 366 357 339 330 331 328 318 324 316 306 310 303 298 297 307 299 279 277 307 324 321 316 308 302 295 303 304 310 306 307 302 306 308 300 297 291 282 290 289 284 277 274 273 270 271 264 260 260 271 282 276 282 285 282 279 264 -9999 -9999 -9999 -9999 -9999 -9999 -9999 -9999 -9999 -9999 -9999 -9999 -9999 -9999 -9999 -9999 -9999 -9999 -9999 -9999 -9999 -9999 -9999 -9999 -9999 -9999 -9999 -9999 -9999
-9999 -9999 -9999 996 1120 1032 1007 957 901 918 747 644 713 694 694 675 658 661 611 678 695 690 748 798 730 661 693 704 707 714 674 690 671 619 598 620 645 765 747 684 729 594 624 730 724 768 689 628 605 612 581 523 502 505 495 525 537 588 602 598 579 542 533 523 534 539 515 517 517 543 553 549 474 424 397 334 344 330 319 321 314 304 300 312 300 300 319 310 302 298 296 279 300 278 249 251 249 255 257 269 296 295 288 294 320 348 364 351 341 314 299 296 281 289 306 316 301 299 297 301 309 318 325 335 341 331 328 337 346 343 336 327 318 308 319 306 299 298 291 290 284 303 297 289 279 303 320 314 308 314 309 302 295 299 308 304 297 299 303 306 308 314 305 298 299 305 300 286 286 282 278 262 267 259 253 264 265 270 274 272 268 271 -9999 -9999 -9999 -9999 -9999 -9999 -9999 -9999 -9999 -9999 -9999 -9999 -9999 -9999 -9999 -9999 -9999 -9999 -9999 -9999 -9999 -9999 -9999 -9999 -9999 -9999 -9999 -9999 -9999 -9999
-9999 -9999 870 963 1006 955 909 896 858 840 843 695 640 633 633 655 596 588 592 695 668 661 670 662 665 715 701 693 735 802 692 610 626 594 595 609 621 607 538 577 592 541 568 725 785 645 590 559 529 568 577 544 517 478 514 523 543 597 593 530 539 532 511 504 519 503 500 525 541 534 537 539 497 362 346 335 341 339 346 350 338 319 312 294 295 298 310 311 303 280 272 277 301 286 254 255 250 278 287 285 285 297 296 307 338 350 350 341 338 322 308 298 296 287 303 287 283 289 308 321 327 333 330 331 328 314 320 341 342 336 324 323 329 327 310 300 306 287 279 279 284 289 299 293 272 285 309 315 306 304 301 301 289 298 305 299 286 292 299 299 309 330 337 325 312 300 295 290 291 287 280 269 265 260 251 248 260 259 268 270 258 261 -9999 -9999 -9999 -9999 -9999 -9999 -9999 -9999 -9999 -9999 -9999 -9999 -9999 -9999 -9999 -9999 -9999 -9999 -9999 -9999 -9999 -9999 -9999 -9999 -9999 -9999 -9999 -9999 -9999 -9999
-9999 -9999 947 1050 1037 996 981 969 947 795 758 696 664 592 599 624 586 654 618 635 605 690 816 858 775 684 645 612 597 650 630 590 602 590 605 626 688 636 521 503 533 522 517 554 655 683 579 526 507 519 522 519 491 516 493 496 503 535 534 518 509 517 522 509 492 489 508 528 525 519 521 488 451 389 348 325 323 333 332 331 318 318 302 306 291 286 307 296 307 294 262 283 281 264 249 249 259 264 270 267 277 300 305 326 335 352 363 331 321 323 318 321 301 280 283 294 300 309 313 315 309 319 313 317 316 308 314 352 349 326 325 324 330 311 298 296 292 302 296 290 280 277 298 301 277 290 295 308 309 310 303 297 293 288 299 297 282 281 289 303 313 320 326 323 314 300 291 287 277 276 272 267 270 265 262 248 242 252 257 262 248 249 -9999 -9999 -9999 -9999 -9999 -9999 -9999 -9999 -9999 -9999 -9999 -9999 -9999 -9999 -9999 -9999 -9999 -9999 -9999 -9999 -9999 -9999 -9999 -9999 -9999 -9999 -9999 -9999 -9999 -9999
-9999 -9999 1064 1106 1003 975 946 908 856 840 756 627 616 626 612 585 587 597 603 636 663 852 948 870 694 673 695 680 653 604 612 614 588 586 606 628 637 592 528 498 490 504 491 526 548 522 571 558 517 491 465 465 470 529 553 518 525 498 498 512 522 518 511 493 489 506 517 520 514 528 491 430 387 351 336 318 328 322 313 313 301 303 293 282 275 284 303 298 288 285 258 277 275 263 251 248 250 269 270 262 282 289 310 323 340 348 340 321 309 297 295 298 295 280 297 308 300 297 295 290 305 300 308 309 307 311 334 340 339 335 311 302 302 306 324 317 313 296 290 288 282 269 274 286 271 276 290 296 305 313 309 305 309 302 289 285 283 298 300 301 304 303 305 310 310 323 316 295 282 286 282 275 268 274 265 248 241 236 242 253 247 -9999 -9999 -9999 -9999 -9999 -9999 -9999 -9999 -9999 -9999 -9999 -9999 -9999 -9999 -9999 -9999 -9999 -9999 -9999 -9999 -9999 -9999 -9999 -9999 -9999 -9999 -9999 -9999 -9999 -9999 -9999
-9999 -9999 963 1030 979 905 865 854 816 771 727 660 641 589 615 601 576 643 777 703 671 715 759 786 726 695 683 688 683 631 598 631 582 593 607 561 531 509 518 508 513 489 483 488 511 515 532 583 560 530 452 486 517 545 590 545 554 519 505 504 519 498 477 487 483 508 510 510 512 529 517 407 344 340 342 339 346 326 315 308 307 292 311 290 280 269 277 280 262 260 257 285 294 267 249 248 263 294 293 273 294 318 323 332 330 345 358 332 314 305 305 297 286 278 288 296 288 292 292 299 302 306 318 316 315 326 341 315 325 316 318 324 320 322 311 302 297 292 305 301 284 288 277 270 264 273 275 283 300 310 312 304 299 304 297 285 279 280 290 300 303 293 304 304 306 321 324 306 290 292 289 280 286 280 261 269 259 248 235 241 237 -9999 -9999 -9999 -9999 -9999 -9999 -9999 -9999 -9999 -9999 -9999 -9999 -9999 -9999 -9999 -9999 -9999 -9999 -9999 -9999 -9999 -9999 -9999 -9999 -9999 -9999 -9999 -9999 -9999 -9999 -9999
-9999 -9999 888 1035 1066 944 886 858 809 773 741 689 598 610 591 590 575 642 733 674 628 644 691 719 739 728 741 669 653 679 635 596 592 606 584 566 610 639 573 595 539 496 484 496 492 477 496 536 501 472 464 505 523 541 564 577 576 540 536 508 489 469 477 486 489 496 497 506 514 524 499 423 368 383 359 358 344 337 325 324 318 317 313 304 298 286 267 266 283 271 256 290 282 262 248 248 260 276 275 283 301 317 326 313 316 337 382 370 342 323 312 302 287 279 286 283 288 296 305 320 312 313 304 310 304 314 312 322 331 328 327 325 318 314 309 309 316 313 307 286 275 267 267 260 263 255 271 286 300 307 306 301 290 286 296 303 291 269 277 294 303 298 293 301 298 304 311 305 293 288 282 281 287 279 274 280 268 255 248 239 -9999 -9999 -9999 -9999 -9999 -9999 -9999 -9999 -9999 -9999 -9999 -9999 -9999 -9999 -9999 -9999 -9999 -9999 -9999 -9999 -9999 -9999 -9999 -9999 -9999 -9999 -9999 -9999 -9999 -9999 -9999 -9999
-9999 -9999 903 956 1066 938 905 838 789 782 729 699 647 618 648 603 582 646 658 631 614 639 660 705 766 694 680 657 633 629 655 596 598 645 697 663 633 562 523 520 506 509 462 487 481 468 433 449 424 437 454 475 493 519 538 548 563 545 532 509 453 468 508 512 513 519 516 529 519 506 480 436 402 352 340 333 322 325 321 312 314 316 324 320 308 297 286 278 293 263 254 257 270 274 249 248 252 265 266 273 289 304 317 305 320 326 332 341 323 327 323 304 275 270 275 280 281 301 311 310 306 287 287 286 304 310 335 332 317 315 319 312 308 306 303 309 311 304 292 280 279 288 284 261 253 270 287 293 298 300 295 299 301 294 284 299 298 281 273 290 294 307 296 287 294 301 302 298 291 289 290 293 287 280 273 273 266 265 258 245 -9999 -9999 -9999 -9999 -9999 -9999 -9999 -9999 -9999 -9999 -9999 -9999 -9999 -9999 -9999 -9999 -9999 -9999 -9999 -9999 -9999 -9999 -9999 -9999 -9999 -9999 -9999 -9999 -9999 -9999 -9999 -9999
-9999 -9999 1007 1037 1033 983 880 817 786 747 724 672 615 654 652 608 577 586 602 609 633 633 658 697 730 742 734 710 670 605 578 573 592 628 657 686 633 612 580 566 534 485 454 469 471 450 408 430 469 508 519 525 542 521 539 562 535 534 505 456 464 484 512 519 527 530 528 520 484 460 369 379 385 371 332 319 320 313 322 305 296 308 311 315 313 307 297 295 288 284 273 261 252 259 251 248 252 264 261 258 288 298 303 305 317 320 316 310 307 316 316 301 281 270 277 292 281 284 294 291 289 304 305 290 318 314 308 326 309 309 319 314 301 310 307 296 301 298 294 299 300 296 277 262 266 262 268 285 284 298 300 291 286 287 281 277 294 300 270 277 297 305 298 283 288 293 294 293 282 292 289 282 284 283 273 262 261 256 257 -9999 -9999 -9999 -9999 -9999 -9999 -9999 -9999 -9999 -9999 -9999 -9999 -9999 -9999 -9999 -9999 -9999 -9999 -9999 -9999 -9999 -9999 -9999 -9999 -9999 -9999 -9999 -9999 -9999 -9999 -9999 -9999 -9999
-9999 -9999 1102 999 928 914 852 808 764 768 749 572 639 655 640 598 581 581 617 611 624 678 713 744 779 770 789 795 745 672 581 534 577 596 600 644 613 567 553 554 508 485 447 447 461 431 416 446 474 505 521 527 542 524 574 530 512 500 458 443 481 496 508 514 519 526 505 482 418 384 348 337 355 348 333 322 311 303 297 301 293 307 299 304 301 306 299 295 280 272 286 268 249 250 255 248 250 258 241 253 284 285 295 302 314 309 306 297 300 300 300 303 279 276 296 278 271 280 280 288 307 310 315 306 310 304 297 303 297 309 315 304 300 296 297 286 289 291 288 292 290 284 272 272 273 263 261 273 278 295 297 301 291 285 279 271 287 293 276 270 288 295 294 278 291 292 285 284 277 283 277 272 277 267 259 261 257 257 -9999 -9999 -9999 -9999 -9999 -9999 -9999 -9999 -9999 -9999 -9999 -9999 -9999 -9999 -9999 -9999 -9999 -9999 -9999 -9999 -9999 -9999 -9999 -9999 -9999 -9999 -9999 -9999 -9999 -9999 -9999 -9999 -9999 -9999
-9999 -9999 1032 903 827 819 752 781 742 695 594 564 628 600 595 584 612 604 597 575 604 698 741 714 776 721 668 637 617 580 564 533 535 532 552 580 614 559 530 558 516 476 442 429 422 401 442 459 497 506 515 502 501 519 526 513 492 451 432 459 488 511 513 519 504 507 472 428 392 345 331 321 329 329 326 320 310 303 292 287 293 296 300 290 291 298 293 290 281 271 258 256 255 248 262 244 220 232 228 243 271 282 278 297 315 314 307 299 290 288 289 297 272 286 288 267 279 285 282 291 302 300 307 315 289 283 285 292 301 304 301 300 293 285 284 294 286 286 284 284 279 281 285 287 289 282 268 266 289 287 291 297 306 298 287 273 264 262 259 260 279 286 289 272 287 285 281 270 271 268 265 268 260 253 246 244 239 -9999 -9999 -9999 -9999 -9999 -9999 -9999 -9999 -9999 -9999 -9999 -9999 -9999 -9999 -9999 -9999 -9999 -9999 -9999 -9999 -9999 -9999 -9999 -9999 -9999 -9999 -9999 -9999 -9999 -9999 -9999 -9999 -9999 -9999 -9999
-9999 -9999 913 857 771 668 608 600 619 605 551 568 592 585 591 643 675 635 628 632 579 642 680 701 782 821 781 691 665 631 584 566 547 545 571 577 570 542 525 516 486 450 421 413 390 420 422 451 483 498 497 486 508 519 513 488 455 409 461 492 492 494 481 475 483 456 400 401 350 338 325 322 315 322 315 305 311 311 311 300 280 291 304 292 278 280 279 286 273 265 269 256 248 254 268 246 229 219 226 267 282 271 289 303 307 310 306 293 297 287 278 283 269 276 263 274 286 299 304 305 305 295 287 293 280 282 299 296 294 281 279 296 305 302 285 287 292 282 275 284 271 282 289 296 298 290 281 262 278 283 277 293 300 297 286 281 285 276 282 261 269 272 270 261 275 281 273 263 261 257 257 252 251 252 254 -9999 -9999 -9999 -9999 -9999 -9999 -9999 -9999 -9999 -9999 -9999 -9999 -9999 -9999 -9999 -9999 -9999 -9999 -9999 -9999 -9999 -9999 -9999 -9999 -9999 -9999 -9999 -9999 -9999 -9999 -9999 -9999 -9999 -9999 -9999 -9999 -9999
-9999 -9999 742 780 922 744 630 549 554 564 534 590 575 570 630 716 732 707 671 623 580 641 679 776 869 872 853 772 692 708 614 600 561 521 517 524 550 527 513 494 483 491 464 458 392 441 453 457 479 483 481 494 506 507 493 442 424 462 459 493 462 446 432 454 464 449 401 353 346 333 322 311 305 312 303 301 298 305 299 299 287 285 301 297 289 277 261 276 270 259 255 251 252 264 269 249 233 227 263 286 273 259 285 304 300 294 298 294 280 278 261 262 255 263 277 278 280 295 299 294 294 289 274 271 279 293 300 286 281 275 287 285 296 306 296 285 280 279 281 272 272 281 279 294 300 293 279 268 262 269 277 286 284 289 287 295 293 289 285 267 253 249 257 270 279 288 279 275 275 277 267 261 268 -9999 -9999 -9999 -9999 -9999 -9999 -9999 -9999 -9999 -9999 -9999 -9999 -9999 -9999 -9999 -9999 -9999 -9999 -9999 -9999 -9999 -9999 -9999 -9999 -9999 -9999 -9999 -9999 -9999 -9999 -9999 -9999 -9999 -9999 -9999 -9999 -9999 -9999 -9999
-9999 -9999 618 690 711 658 597 583 525 538 521 558 550 625 678 738 746 674 654 632 576 582 631 774 811 740 715 664 617 609 554 532 530 546 549 523 615 630 560 507 470 459 445 433 374 455 492 499 502 498 500 497 490 473 433 402 448 415 408 456 397 420 448 493 492 478 445 362 329 324 318 320 315 303 304 299 296 290 284 296 301 281 295 303 290 281 257 269 272 258 248 249 260 274 250 228 216 245 292 282 256 267 288 302 295 290 284 280 268 268 277 279 276 290 284 278 292 295 295 289 301 279 262 274 290 285 290 283 277 263 273 278 291 305 302 288 277 273 275 265 259 276 274 291 302 298 288 274 264 265 275 279 281 284 287 288 290 282 271 274 262 247 264 273 280 283 281 285 283 270 265 -9999 -9999 -9999 -9999 -9999 -9999 -9999 -9999 -9999 -9999 -9999 -9999 -9999 -9999 -9999 -9999 -9999 -9999 -9999 -9999 -9999 -9999 -9999 -9999 -9999 -9999 -9999 -9999 -9999 -9999 -9999 -9999 -9999 -9999 -9999 -9999 -9999 -9999 -9999 -9999 -9999
-9999 -9999 602 547 525 523 541 586 541 504 508 536 555 588 619 684 751 743 745 739 716 606 572 668 625 607 590 555 538 565 537 578 589 628 566 504 548 620 539 506 479 465 439 402 363 433 480 494 484 492 510 479 479 433 413 415 391 394 382 363 367 362 418 477 438 442 411 371 331 312 306 313 304 304 315 308 307 300 294 290 283 280 297 296 276 281 264 253 271 261 251 250 266 269 243 217 227 269 289 261 253 284 300 302 291 282 287 260 272 283 273 286 300 287 281 263 276 287 296 274 270 264 272 292 292 273 278 281 266 273 290 287 289 303 301 305 301 283 276 264 251 263 268 283 293 290 284 267 259 280 286 282 271 278 276 277 290 291 283 280 271 258 252 263 267 267 275 286 282 -9999 -9999 -9999 -9999 -9999 -9999 -9999 -9999 -9999 -9999 -9999 -9999 -9999 -9999 -9999 -9999 -9999 -9999 -9999 -9999 -9999 -9999 -9999 -9999 -9999 -9999 -9999 -9999 -9999 -9999 -9999 -9999 -9999 -9999 -9999 -9999 -9999 -9999 -9999 -9999 -9999 -9999 -9999
-9999 593 557 502 496 495 551 619 562 508 502 542 553 558 579 657 795 865 834 832 774 638 567 567 557 548 585 560 579 543 575 626 610 569 523 523 616 610 506 480 464 457 424 363 399 430 458 479 496 502 482 441 416 440 465 459 432 440 362 316 315 354 379 484 380 346 341 333 315 296 313 311 297 292 307 298 296 285 298 299 277 280 291 275 285 268 269 252 258 251 255 249 249 254 235 208 241 287 279 242 260 282 295 293 278 270 284 247 237 249 264 283 292 282 266 256 269 279 281 276 262 272 285 299 291 282 266 277 262 273 277 282 294 292 288 296 289 275 283 285 267 264 256 259 279 278 274 255 254 263 274 273 264 265 270 281 292 289 284 277 268 256 248 259 262 275 -9999 -9999 -9999 -9999 -9999 -9999 -9999 -9999 -9999 -9999 -9999 -9999 -9999 -9999 -9999 -9999 -9999 -9999 -9999 -9999 -9999 -9999 -9999 -9999 -9999 -9999 -9999 -9999 -9999 -9999 -9999 -9999 -9999 -9999 -9999 -9999 -9999 -9999 -9999 -9999 -9999 -9999 -9999 -9999 -9999 -9999
-9999 519 507 491 486 484 569 626 574 523 499 527 565 533 545 620 713 765 833 776 702 642 621 610 643 606 561 562 636 681 624 679 664 551 486 530 560 526 478 431 425 403 352 394 474 482 481 498 484 474 441 395 423 467 439 455 407 361 358 345 318 317 430 424 329 326 325 320 301 296 309 303 296 280 298 293 277 276 297 296 279 264 267 268 260 259 271 268 253 259 248 249 248 248 238 232 271 261 265 229 249 270 294 283 261 250 238 226 248 251 267 276 282 272 259 258 268 275 281 266 262 272 279 296 290 273 263 274 260 266 269 280 290 277 282 280 285 280 277 285 280 267 268 257 269 267 272 251 255 266 276 268 261 267 277 282 288 286 280 279 279 266 251 247 -9999 -9999 -9999 -9999 -9999 -9999 -9999 -9999 -9999 -9999 -9999 -9999 -9999 -9999 -9999 -9999 -9999 -9999 -9999 -9999 -9999 -9999 -9999 -9999 -9999 -9999 -9999 -9999 -9999 -9999 -9999 -9999 -9999 -9999 -9999 -9999 -9999 -9999 -9999 -9999 -9999 -9999 -9999 -9999 -9999 -9999 -9999 -9999
-9999 523 502 482 462 535 564 566 538 515 510 506 542 509 556 549 564 674 770 770 737 716 717 745 728 681 675 613 648 701 653 619 610 575 527 484 447 488 495 419 321 319 384 446 460 475 490 480 442 398 385 439 435 437 436 406 353 342 328 326 336 315 354 350 331 305 316 305 293 285 295 296 288 274 291 283 275 268 293 303 299 289 282 256 257 249 255 275 266 258 252 249 248 249 254 233 240 221 231 228 260 277 277 274 245 219 227 243 248 265 277 279 281 271 276 254 270 280 268 256 266 270 282 281 275 277 264 259 259 266 285 283 276 268 269 276 284 284 270 267 268 258 257 255 258 258 269 252 262 277 275 267 254 258 265 278 291 285 278 272 271 -9999 -9999 -9999 -9999 -9999 -9999 -9999 -9999 -9999 -9999 -9999 -9999 -9999 -9999 -9999 -9999 -9999 -9999 -9999 -9999 -9999 -9999 -9999 -9999 -9999 -9999 -9999 -9999 -9999 -9999 -9999 -9999 -9999 -9999 -9999 -9999 -9999 -9999 -9999 -9999 -9999 -9999 -9999 -9999 -9999 -9999 -9999 -9999 -9999 -9999 -9999
-9999 508 501 478 461 501 513 542 534 499 508 525 504 489 525 574 612 616 599 597 645 678 701 793 803 777 733 668 603 595 599 595 574 614 598 546 497 423 410 420 300 401 461 451 452 480 456 408 360 414 426 433 392 405 363 379 391 381 336 314 326 291 307 307 321 296 312 303 299 281 288 280 278 274 285 280 263 272 298 294 284 279 282 274 265 258 249 258 252 248 249 248 253 242 244 234 240 247 233 227 228 240 247 247 227 222 237 259 271 277 283 273 268 272 257 257 263 261 257 263 271 284 289 279 270 264 268 251 257 261 261 260 264 276 281 285 287 289 282 267 279 276 256 255 266 259 266 255 272 273 270 268 250 257 272 281 287 276 275 -9999 -9999 -9999 -9999 -9999 -9999 -9999 -9999 -9999 -9999 -9999 -9999 -9999 -9999 -9999 -9999 -9999 -9999 -9999 -9999 -9999 -9999 -9999 -9999 -9999 -9999 -9999 -9999 -9999 -9999 -9999 -9999 -9999 -9999 -9999 -9999 -9999 -9999 -9999 -9999 -9999 -9999 -9999 -9999 -9999 -9999 -9999 -9999 -9999 -9999 -9999 -9999 -9999
-9999 492 475 462 445 487 531 534 488 474 476 508 518 503 583 545 594 574 531 519 554 564 614 670 705 745 737 675 572 533 520 546 553 536 535 509 496 475 394 317 314 445 446 433 453 417 371 362 401 436 467 447 357 315 340 374 353 337 324 303 320 292 289 310 304 291 290 305 300 287 285 279 272 266 277 271 262 272 277 287 276 269 284 284 269 261 256 250 248 248 248 257 272 258 238 255 268 264 244 220 206 217 233 222 235 243 246 260 276 267 275 277 250 259 245 246 254 264 276 281 286 281 283 273 260 253 261 250 251 260 265 279 283 288 297 290 283 288 284 286 284 281 271 272 268 254 258 252 267 270 265 262 249 262 274 282 284 -9999 -9999 -9999 -9999 -9999 -9999 -9999 -9999 -9999 -9999 -9999 -9999 -9999 -9999 -9999 -9999 -9999 -9999 -9999 -9999 -9999 -9999 -9999 -9999 -9999 -9999 -9999 -9999 -9999 -9999 -9999 -9999 -9999 -9999 -9999 -9999 -9999 -9999 -9999 -9999 -9999 -9999 -9999 -9999 -9999 -9999 -9999 -9999 -9999 -9999 -9999 -9999 -9999 -9999 -9999
-9999 480 503 455 440 444 447 460 440 445 485 537 534 503 504 517 569 563 519 495 507 529 530 584 581 566 566 576 586 533 503 509 519 520 491 482 493 464 420 402 317 396 419 453 396 295 368 367 381 427 461 411 337 279 293 347 343 338 315 304 298 291 279 290 290 279 281 302 296 294 290 287 273 261 270 277 262 264 280 280 273 270 280 283 286 273 257 250 250 256 256 283 283 283 277 274 268 244 229 212 221 252 224 222 230 241 245 263 259 261 269 271 249 241 241 252 252 275 281 270 279 273 269 279 279 258 252 259 265 269 274 281 280 289 294 288 277 276 282 286 272 276 281 281 273 266 257 248 256 259 266 251 249 266 -9999 -9999 -9999 -9999 -9999 -9999 -9999 -9999 -9999 -9999 -9999 -9999 -9999 -9999 -9999 -9999 -9999 -9999 -9999 -9999 -9999 -9999 -9999 -9999 -9999 -9999 -9999 -9999 -9999 -9999 -9999 -9999 -9999 -9999 -9999 -9999 -9999 -9999 -9999 -9999 -9999 -9999 -9999 -9999 -9999 -9999 -9999 -9999 -9999 -9999 -9999 -9999 -9999 -9999 -9999 -9999 -9999 -9999
-9999 455 439 422 422 424 437 447 468 456 511 566 605 573 508 478 500 518 536 496 491 494 534 555 497 567 538 496 489 514 516 489 488 489 471 480 473 447 446 417 315 303 428 368 306 306 437 416 404 435 422 409 375 320 268 291 318 327 297 307 293 274 269 264 274 281 283 300 293 281 282 278 282 273 265 260 267 262 275 270 270 264 274 275 282 273 261 255 263 274 274 275 267 264 253 245 246 247 233 209 230 222 209 227 255 260 261 264 259 249 256 239 240 255 262 260 261 270 272 264 274 279 267 271 273 261 249 261 270 262 273 274 284 285 276 282 280 270 278 277 267 269 280 282 279 277 261 248 254 256 264 250 -9999 -9999 -9999 -9999 -9999 -9999 -9999 -9999 -9999 -9999 -9999 -9999 -9999 -9999 -9999 -9999 -9999 -9999 -9999 -9999 -9999 -9999 -9999 -9999 -9999 -9999 -9999 -9999 -9999 -9999 -9999 -9999 -9999 -9999 -9999 -9999 -9999 -9999 -9999 -9999 -9999 -9999 -9999 -9999 -9999 -9999 -9999 -9999 -9999 -9999 -9999 -9999 -9999 -9999 -9999 -9999 -9999 -9999 -9999 -9999
-9999 438 425 416 466 498 467 458 512 485 531 594 616 527 481 479 486 500 504 481 467 494 557 507 489 520 544 511 473 487 496 492 479 465 448 451 438 432 432 383 303 267 321 275 265 323 429 453 435 404 326 377 314 301 284 263 280 304 287 299 292 290 278 265 258 276 273 291 279 272 274 269 267 279 274 266 262 255 267 259 259 257 266 272 291 288 267 275 283 272 273 272 280 275 263 236 225 240 230 217 206 206 217 220 233 252 260 257 256 240 235 238 254 262 260 260 253 259 270 260 265 275 270 261 258 254 249 255 266 258 276 284 277 268 264 277 279 269 265 264 267 267 274 268 270 276 265 247 246 260 -9999 -9999 -9999 -9999 -9999 -9999 -9999 -9999 -9999 -9999 -9999 -9999 -9999 -9999 -9999 -9999 -9999 -9999 -9999 -9999 -9999 -9999 -9999 -9999 -9999 -9999 -9999 -9999 -9999 -9999 -9999 -9999 -9999 -9999 -9999 -9999 -9999 -9999 -9999 -9999 -9999 -9999 -9999 -9999 -9999 -9999 -9999 -9999 -9999 -9999 -9999 -9999 -9999 -9999 -9999 -9999 -9999 -9999 -9999 -9999 -9999 -9999
-9999 436 412 461 525 545 480 466 500 502 553 597 583 532 516 489 466 465 470 465 480 491 513 492 479 501 487 508 485 476 482 477 468 446 411 429 425 424 408 431 339 266 252 249 311 372 384 386 405 353 360 292 286 290 282 301 276 275 274 269 276 289 289 279 261 254 267 286 289 280 277 270 256 260 256 256 265 252 256 264 250 271 283 281 289 275 272 283 289 289 292 289 290 285 273 254 230 222 222 217 206 213 219 233 251 250 259 250 252 243 225 241 260 263 254 245 257 266 262 254 267 271 272 252 248 245 256 265 263 261 266 268 262 262 273 277 282 278 271 271 270 261 263 265 260 268 258 -9999 -9999 -9999 -9999 -9999 -9999 -9999 -9999 -9999 -9999 -9999 -9999 -9999 -9999 -9999 -9999 -9999 -9999 -9999 -9999 -9999 -9999 -9999 -9999 -9999 -9999 -9999 -9999 -9999 -9999 -9999 -9999 -9999 -9999 -9999 -9999 -9999 -9999 -9999 -9999 -9999 -9999 -9999 -9999 -9999 -9999 -9999 -9999 -9999 -9999 -9999 -9999 -9999 -9999 -9999 -9999 -9999 -9999 -9999 -9999 -9999 -9999 -9999 -9999 -9999
-9999 417 412 433 464 475 475 512 520 533 539 567 549 566 548 511 485 468 450 449 466 481 476 478 467 485 477 465 463 470 472 465 460 442 406 394 393 354 400 374 277 246 257 241 248 261 301 302 302 324 305 281 272 270 291 299 300 259 245 244 268 285 267 255 240 257 273 276 290 289 281 275 274 259 262 266 264 261 253 254 253 265 271 282 290 269 273 287 291 281 282 281 274 277 276 260 239 231 217 215 203 204 227 243 253 251 243 239 238 226 241 248 260 250 255 243 256 255 249 251 267 259 260 244 243 256 259 263 249 255 249 252 256 268 272 274 275 283 285 284 272 279 274 256 249 -9999 -9999 -9999 -9999 -9999 -9999 -9999 -9999 -9999 -9999 -9999 -9999 -9999 -9999 -9999 -9999 -9999 -9999 -9999 -9999 -9999 -9999 -9999 -9999 -9999 -9999 -9999 -9999 -9999 -9999 -9999 -9999 -9999 -9999 -9999 -9999 -9999 -9999 -9999 -9999 -9999 -9999 -9999 -9999 -9999 -9999 -9999 -9999 -9999 -9999 -9999 -9999 -9999 -9999 -9999 -9999 -9999 -9999 -9999 -9999 -9999 -9999 -9999 -9999 -9999 -9999 -9999
-9999 459 438 442 449 446 469 503 527 556 532 548 503 492 490 470 481 465 452 441 456 458 454 468 458 452 455 449 453 452 459 457 459 456 449 434 428 380 313 273 299 360 379 303 246 235 230 259 268 267 271 296 269 276 271 286 280 263 235 228 244 251 277 267 236 248 248 256 282 289 285 287 273 274 287 279 273 265 257 239 244 255 271 280 277 261 271 277 285 289 275 275 264 255 258 268 265 256 231 218 201 194 210 223 240 254 254 232 226 246 259 257 255 246 244 245 242 251 248 249 261 248 242 247 255 262 264 252 244 249 266 262 273 272 269 263 269 274 290 285 282 285 268 -9999 -9999 -9999 -9999 -9999 -9999 -9999 -9999 -9999 -9999 -9999 -9999 -9999 -9999 -9999 -9999 -9999 -9999 -9999 -9999 -9999 -9999 -9999 -9999 -9999 -9999 -9999 -9999 -9999 -9999 -9999 -9999 -9999 -9999 -9999 -9999 -9999 -9999 -9999 -9999 -9999 -9999 -9999 -9999 -9999 -9999 -9999 -9999 -9999 -9999 -9999 -9999 -9999 -9999 -9999 -9999 -9999 -9999 -9999 -9999 -9999 -9999 -9999 -9999 -9999 -9999 -9999 -9999 -9999
-9999 486 444 415 425 446 455 474 503 473 487 490 469 467 472 461 456 456 439 427 420 419 430 443 438 442 432 456 459 466 454 471 473 463 454 439 388 325 294 335 369 423 398 320 320 279 224 241 266 236 265 280 270 264 268 270 278 287 281 255 244 226 247 240 230 251 277 282 277 282 276 283 281 280 283 273 266 259 259 248 248 270 271 276 268 258 272 275 271 274 279 271 258 239 253 265 256 242 232 228 207 207 223 238 242 246 230 228 240 247 255 255 261 257 244 239 243 245 238 254 251 240 245 252 255 261 254 240 256 271 272 272 271 260 256 259 265 277 287 280 -9999 -9999 -9999 -9999 -9999 -9999 -9999 -9999 -9999 -9999 -9999 -9999 -9999 -9999 -9999 -9999 -9999 -9999 -9999 -9999 -9999 -9999 -9999 -9999 -9999 -9999 -9999 -9999 -9999 -9999 -9999 -9999 -9999 -9999 -9999 -9999 -9999 -9999 -9999 -9999 -9999 -9999 -9999 -9999 -9999 -9999 -9999 -9999 -9999 -9999 -9999 -9999 -9999 -9999 -9999 -9999 -9999 -9999 -9999 -9999 -9999 -9999 -9999 -9999 -9999 -9999 -9999 -9999 -9999 -9999 -9999 -9999
-9999 480 455 423 448 450 447 445 450 443 493 493 453 438 454 456 456 444 453 446 428 409 421 443 441 418 436 457 465 474 471 472 465 452 407 380 397 372 402 432 438 360 358 354 346 353 273 223 222 239 226 236 250 247 265 258 269 285 269 247 232 251 259 231 244 271 288 285 269 278 265 267 277 279 273 267 259 249 246 245 245 249 245 253 255 251 264 261 266 253 264 270 255 234 247 248 250 237 223 226 207 204 212 220 233 242 225 234 246 257 252 246 256 256 241 234 242 236 243 237 232 237 248 261 265 246 236 247 262 256 264 271 269 255 248 269 266 280 -9999 -9999 -9999 -9999 -9999 -9999 -9999 -9999 -9999 -9999 -9999 -9999 -9999 -9999 -9999 -9999 -9999 -9999 -9999 -9999 -9999 -9999 -9999 -9999 -9999 -9999 -9999 -9999 -9999 -9999 -9999 -9999 -9999 -9999 -9999 -9999 -9999 -9999 -9999 -9999 -9999 -9999 -9999 -9999 -9999 -9999 -9999 -9999 -9999 -9999 -9999 -9999 -9999 -9999 -9999 -9999 -9999 -9999 -9999 -9999 -9999 -9999 -9999 -9999 -9999 -9999 -9999 -9999 -9999 -9999 -9999 -9999 -9999 -9999
465 444 448 429 416 431 430 434 436 447 497 521 465 437 425 434 445 441 450 455 446 425 442 433 427 432 443 457 464 456 460 437 450 413 375 405 431 416 440 453 452 366 298 315 356 346 260 252 219 207 214 222 240 264 242 247 260 265 250 257 235 234 231 230 241 280 289 275 268 258 264 262 276 287 275 269 259 270 259 248 266 267 267 255 242 241 250 252 249 240 258 239 227 215 216 218 215 216 213 210 205 204 212 234 240 244 225 229 246 249 256 243 255 257 243 236 238 231 237 248 243 252 254 263 259 241 234 250 254 241 249 263 261 255 244 254 -9999 -9999 -9999 -9999 -9999 -9999 -9999 -9999 -9999 -9999 -9999 -9999 -9999 -9999 -9999 -9999 -9999 -9999 -9999 -9999 -9999 -9999 -9999 -9999 -9999 -9999 -9999 -9999 -9999 -9999 -9999 -9999 -9999 -9999 -9999 -9999 -9999 -9999 -9999 -9999 -9999 -9999 -9999 -9999 -9999 -9999 -9999 -9999 -9999 -9999 -9999 -9999 -9999 -9999 -9999 -9999 -9999 -9999 -9999 -9999 -9999 -9999 -9999 -9999 -9999 -9999 -9999 -9999 -9999 -9999 -9999 -9999 -9999 -9999 -9999 -9999
457 433 426 428 423 408 425 422 429 480 472 490 449 444 441 426 419 425 432 447 438 424 415 412 426 435 438 447 448 444 451 411 423 419 425 427 449 459 450 410 399 366 323 279 321 312 268 248 228 238 234 218 207 225 253 251 254 258 258 246 248 239 225 251 271 267 275 268 254 246 260 250 264 268 270 277 270 272 261 265 278 283 282 272 258 250 246 248 248 239 243 242 240 243 233 237 239 237 218 209 204 211 220 240 242 226 218 241 254 247 240 244 256 240 228 231 229 245 260 263 262 263 264 264 249 228 236 253 235 250 256 259 252 253 -9999 -9999 -9999 -9999 -9999 -9999 -9999 -9999 -9999 -9999 -9999 -9999 -9999 -9999 -9999 -9999 -9999 -9999 -9999 -9999 -9999 -9999 -9999 -9999 -9999 -9999 -9999 -9999 -9999 -9999 -9999 -9999 -9999 -9999 -9999 -9999 -9999 -9999 -9999 -9999 -9999 -9999 -9999 -9999 -9999 -9999 -9999 -9999 -9999 -9999 -9999 -9999 -9999 -9999 -9999 -9999 -9999 -9999 -9999 -9999 -9999 -9999 -9999 -9999 -9999 -9999 -9999 -9999 -9999 -9999 -9999 -9999 -9999 -9999 -9999 -9999 -9999 -9999
459 452 438 419 422 411 417 413 428 443 451 460 457 445 434 417 421 423 419 420 410 417 408 417 430 424 423 435 437 448 437 421 429 426 444 444 445 431 428 407 395 379 373 296 238 254 269 255 245 247 249 222 214 214 228 237 240 248 255 241 231 236 222 250 266 282 268 254 252 238 247 256 250 253 271 285 288 280 281 286 287 281 276 271 269 269 255 225 239 231 252 262 263 271 266 257 236 220 220 206 212 237 240 251 248 239 221 239 252 254 240 248 243 237 250 257 253 254 264 265 264 267 268 257 242 225 232 232 229 241 257 -9999 -9999 -9999 -9999 -9999 -9999 -9999 -9999 -9999 -9999 -9999 -9999 -9999 -9999 -9999 -9999 -9999 -9999 -9999 -9999 -9999 -9999 -9999 -9999 -9999 -9999 -9999 -9999 -9999 -9999 -9999 -9999 -9999 -9999 -9999 -9999 -9999 -9999 -9999 -9999 -9999 -9999 -9999 -9999 -9999 -9999 -9999 -9999 -9999 -9999 -9999 -9999 -9999 -9999 -9999 -9999 -9999 -9999 -9999 -9999 -9999 -9999 -9999 -9999 -9999 -9999 -9999 -9999 -9999 -9999 -9999 -9999 -9999 -9999 -9999 -9999 -9999 -9999 -9999 -9999 -9999
-9999 433 435 425 409 412 398 412 429 440 452 443 442 452 449 437 428 413 412 407 406 426 424 433 446 439 439 440 434 432 425 442 444 452 460 455 442 429 400 401 396 377 329 268 248 228 226 239 233 242 215 221 230 210 224 246 236 232 244 246 244 222 229 236 250 275 274 268 278 263 232 259 237 254 267 284 293 293 290 282 277 268 260 260 254 252 240 225 216 230 252 253 254 258 256 246 243 226 207 210 210 218 235 244 237 234 226 246 254 250 251 237 237 244 252 257 258 258 250 258 257 262 261 244 234 221 221 224 240 -9999 -9999 -9999 -9999 -9999 -9999 -9999 -9999 -9999 -9999 -9999 -9999 -9999 -9999 -9999 -9999 -9999 -9999 -9999 -9999 -9999 -9999 -9999 -9999 -9999 -9999 -9999 -9999 -9999 -9999 -9999 -9999 -9999 -9999 -9999 -9999 -9999 -9999 -9999 -9999 -9999 -9999 -9999 -9999 -9999 -9999 -9999 -9999 -9999 -9999 -9999 -9999 -9999 -9999 -9999 -9999 -9999 -9999 -9999 -9999 -9999 -9999 -9999 -9999 -9999 -9999 -9999 -9999 -9999 -9999 -9999 -9999 -9999 -9999 -9999 -9999 -9999 -9999 -9999 -9999 -9999 -9999 -9999
-9999 429 424 411 411 402 418 441 435 446 442 432 433 439 447 442 435 419 403 415 427 432 435 441 449 452 457 444 432 433 450 453 455 461 451 439 425 429 422 401 383 363 279 255 259 262 260 253 273 267 252 251 259 235 214 217 217 226 222 217 228 237 219 222 244 255 266 262 274 260 230 240 229 260 264 272 284 300 309 288 279 272 275 265 251 255 244 226 223 218 233 233 247 239 235 238 232 225 206 218 228 224 229 237 243 222 217 242 252 249 240 230 235 242 237 244 246 246 248 252 255 261 244 234 227 217 222 -9999 -9999 -9999 -9999 -9999 -9999 -9999 -9999 -9999 -9999 -9999 -9999 -9999 -9999 -9999 -9999 -9999 -9999 -9999 -9999 -9999 -9999 -9999 -9999 -9999 -9999 -9999 -9999 -9999 -9999 -9999 -9999 -9999 -9999 -9999 -9999 -9999 -9999 -9999 -9999 -9999 -9999 -9999 -9999 -9999 -9999 -9999 -9999 -9999 -9999 -9999 -9999 -9999 -9999 -9999 -9999 -9999 -9999 -9999 -9999 -9999 -9999 -9999 -9999 -9999 -9999 -9999 -9999 -9999 -9999 -9999 -9999 -9999 -9999 -9999 -9999 -9999 -9999 -9999 -9999 -9999 -9999 -9999 -9999 -9999
-9999 445 439 430 418 401 406 420 435 439 428 427 427 427 437 433 428 419 413 427 440 440 435 435 454 451 449 439 442 447 442 442 455 459 450 423 400 394 389 382 363 308 276 307 279 283 276 270 254 249 242 241 233 222 228 226 236 256 234 209 218 230 214 207 225 230 251 249 257 245 231 219 232 239 255 286 289 299 302 294 285 287 277 268 260 271 256 246 235 218 220 214 222 214 210 214 209 216 209 204 205 209 230 232 230 221 224 246 245 236 227 227 234 238 245 249 248 254 259 255 247 249 235 221 218 -9999 -9999 -9999 -9999 -9999 -9999 -9999 -9999 -9999 -9999 -9999 -9999 -9999 -9999 -9999 -9999 -9999 -9999 -9999 -9999 -9999 -9999 -9999 -9999 -9999 -9999 -9999 -9999 -9999 -9999 -9999 -9999 -9999 -9999 -9999 -9999 -9999 -9999 -9999 -9999 -9999 -9999 -9999 -9999 -9999 -9999 -9999 -9999 -9999 -9999 -9999 -9999 -9999 -9999 -9999 -9999 -9999 -9999 -9999 -9999 -9999 -9999 -9999 -9999 -9999 -9999 -9999 -9999 -9999 -9999 -9999 -9999 -9999 -9999 -9999 -9999 -9999 -9999 -9999 -9999 -9999 -9999 -9999 -9999 -9999 -9999 -9999
-9999 458 453 438 428 416 406 430 435 433 425 418 411 428 427 422 412 404 422 437 441 427 422 439 445 432 437 452 456 457 451 453 456 466 445 422 432 397 362 322 288 269 260 278 293 291 278 287 266 261 256 263 254 240 242 229 255 258 243 239 251 254 213 219 234 234 252 232 241 240 227 225 264 273 277 283 277 291 284 287 299 293 280 280 278 277 270 257 252 234 244 233 214 211 208 209 207 208 207 205 207 220 230 230 216 229 240 243 240 226 228 243 246 250 247 253 258 257 253 243 246 245 -9999 -9999 -9999 -9999 -9999 -9999 -9999 -9999 -9999 -9999 -9999 -9999 -9999 -9999 -9999 -9999 -9999 -9999 -9999 -9999 -9999 -9999 -9999 -9999 -9999 -9999 -9999 -9999 -9999 -9999 -9999 -9999 -9999 -9999 -9999 -9999 -9999 -9999 -9999 -9999 -9999 -9999 -9999 -9999 -9999 -9999 -9999 -9999 -9999 -9999 -9999 -9999 -9999 -9999 -9999 -9999 -9999 -9999 -9999 -9999 -9999 -9999 -9999 -9999 -9999 -9999 -9999 -9999 -9999 -9999 -9999 -9999 -9999 -9999 -9999 -9999 -9999 -9999 -9999 -9999 -9999 -9999 -9999 -9999 -9999 -9999 -9999 -9999 -9999 -9999
-9999 459 454 460 429 412 398 414 430 429 420 414 407 404 392 396 413 420 432 435 417 414 438 435 436 437 449 444 445 445 451 458 465 474 451 444 412 396 343 352 299 287 296 295 311 303 299 290 275 280 279 271 254 264 262 256 263 250 227 231 239 242 227 214 218 224 249 230 255 227 219 242 247 247 268 253 266 270 271 278 288 278 272 270 274 263 271 262 252 246 250 251 245 234 226 210 217 222 210 205 206 208 220 225 221 241 247 244 226 226 239 244 248 241 235 243 254 248 239 236 -9999 -9999 -9999 -9999 -9999 -9999 -9999 -9999 -9999 -9999 -9999 -9999 -9999 -9999 -9999 -9999 -9999 -9999 -9999 -9999 -9999 -9999 -9999 -9999 -9999 -9999 -9999 -9999 -9999 -9999 -9999 -9999 -9999 -9999 -9999 -9999 -9999 -9999 -9999 -9999 -9999 -9999 -9999 -9999 -9999 -9999 -9999 -9999 -9999 -9999 -9999 -9999 -9999 -9999 -9999 -9999 -9999 -9999 -9999 -9999 -9999 -9999 -9999 -9999 -9999 -9999 -9999 -9999 -9999 -9999 -9999 -9999 -9999 -9999 -9999 -9999 -9999 -9999 -9999 -9999 -9999 -9999 -9999 -9999 -9999 -9999 -9999 -9999 -9999 -9999 -9999 -9999
