NCOLS 603
NROWS 31
XLLCORNER -83.7416666667
YLLCORNER 34.9
CELLSIZE 0.00833333333333332 
NODATA_value -9999 
-9999 -9999 -9999 -9999 1153 1096 1180 1115 1059 986 962 1048 1143 1107 1108 1187 1218 1232 1239 1287 1187 1119 1029 986 938 895 886 986 928 762 702 681 689 663 664 676 662 665 634 639 657 656 643 636 668 678 657 698 697 801 724 682 835 888 953 956 1034 920 935 1067 1179 1288 1288 1283 1260 1240 1303 1258 1241 1160 1115 1120 1162 1088 1119 1154 1158 1183 1232 1284 1236 1170 1298 1217 1222 1189 1218 1213 1188 1217 1229 1195 1027 1011 1056 1009 979 949 991 959 952 917 898 857 823 839 793 775 729 758 724 684 678 680 740 773 780 823 862 908 880 908 903 890 880 892 903 890 931 899 858 856 864 835 857 889 887 866 864 872 925 958 921 884 906 883 832 728 606 559 487 521 565 536 497 560 671 616 474 407 425 407 383 396 531 603 716 749 869 813 691 596 510 442 457 444 431 363 351 340 337 315 303 297 308 301 299 297 299 300 297 307 311 310 307 301 300 294 287 289 284 283 276 290 289 269 263 247 250 280 298 301 297 292 286 276 261 266 274 272 278 283 275 277 275 275 287 286 275 277 285 285 275 267 270 271 273 268 276 281 283 283 276 272 262 254 247 242 234 241 243 241 233 238 221 197 213 218 205 212 226 233 224 210 193 212 214 211 229 237 249 262 253 249 243 242 232 248 239 222 217 239 260 276 273 265 258 253 250 265 262 254 240 250 243 238 237 228 222 243 236 224 223 232 231 221 215 207 197 209 220 216 219 223 216 211 216 220 217 212 201 185 191 189 180 182 193 179 186 193 194 201 203 199 205 203 197 193 192 190 207 213 205 214 214 208 193 203 210 210 211 206 208 213 212 216 209 194 191 189 187 199 198 207 214 223 228 234 234 226 218 218 211 219 218 204 192 187 183 179 180 173 163 157 153 161 170 170 181 183 178 171 165 161 148 157 157 158 141 146 143 144 154 160 150 142 146 132 148 155 149 141 138 140 127 111 109 97 106 -9999 -9999 -9999 -9999 -9999 -9999 -9999 -9999 -9999 -9999 -9999 -9999 -9999 -9999 -9999 -9999 -9999 -9999 -9999 -9999 -9999 -9999 -9999 -9999 -9999 -9999 -9999 -9999 -9999 -9999 -9999 -9999 -9999 -9999 -9999 -9999 -9999 -9999 -9999 -9999 -9999 -9999 -9999 -9999 -9999 -9999 -9999 -9999 -9999 -9999 -9999 -9999 -9999 -9999 -9999 -9999 -9999 -9999 -9999 -9999 -9999 -9999 -9999 -9999 -9999 -9999 -9999 -9999 -9999 -9999 -9999 -9999 -9999 -9999 -9999 -9999 -9999 -9999 -9999 -9999 -9999 -9999 -9999 -9999 -9999 -9999 -9999 -9999 -9999 -9999 -9999 -9999 -9999 -9999 -9999 -9999 -9999 -9999 -9999 -9999 -9999 -9999 -9999 -9999 -9999 -9999 -9999 -9999 -9999 -9999 -9999 -9999 -9999 -9999 -9999 -9999 -9999 -9999 -9999 -9999 -9999 -9999 -9999 -9999 -9999 -9999 -9999 -9999 -9999 -9999 -9999 -9999 -9999 -9999 -9999 -9999 -9999 -9999 -9999 -9999 -9999 -9999 -9999 -9999 -9999 -9999 -9999 -9999 -9999 -9999 -9999 -9999 -9999 -9999 -9999 -9999 -9999 -9999 -9999 -9999 -9999 -9999 -9999 -9999 -9999 -9999 -9999 -9999 -9999 -9999 -9999 -9999 -9999 -9999 -9999 -9999 -9999 -9999 -9999 -9999 -9999 -9999 -9999 -9999
-9999 -9999 -9999 1319 1132 993 1082 1145 1051 1047 1059 972 1145 1198 1165 1240 1289 1243 1342 1457 1403 1269 1138 1077 1119 994 971 934 867 770 691 672 712 718 764 702 702 677 679 665 693 670 674 629 636 666 735 805 792 790 715 663 685 749 745 864 875 855 984 1182 1212 1075 1070 1233 1413 1320 1275 1250 1243 1205 1154 1141 1149 1120 1125 1210 1201 1239 1236 1224 1119 1040 1181 1202 1228 1233 1220 1261 1269 1250 1282 1274 1086 958 942 953 966 935 1000 1001 960 901 841 828 823 799 783 750 715 700 704 681 693 713 772 764 749 776 803 883 904 920 909 907 906 909 864 851 861 871 847 837 845 891 932 909 871 874 900 926 937 901 863 828 732 741 654 481 434 440 528 564 497 421 450 458 425 435 395 402 381 441 532 543 605 642 777 867 802 736 735 672 491 450 430 429 356 332 335 336 324 308 303 299 293 298 287 287 301 292 283 299 305 290 298 306 308 304 306 311 306 292 272 275 277 276 268 249 252 271 288 298 294 293 279 275 265 257 264 265 276 281 265 266 260 274 286 281 285 287 292 285 276 281 273 274 284 277 285 286 286 285 285 275 254 247 248 250 249 261 262 254 248 247 225 207 195 212 200 213 220 236 230 222 204 227 219 233 245 263 276 259 245 232 235 225 231 235 217 212 234 266 286 273 258 249 249 240 257 248 254 258 250 231 233 230 237 236 239 252 233 235 238 231 228 232 230 224 217 209 202 200 210 214 219 210 205 213 211 207 198 195 178 182 194 201 185 199 189 188 195 203 197 193 199 202 193 183 188 186 203 212 201 207 204 200 200 210 214 216 204 200 209 208 200 202 203 190 186 190 191 191 210 217 224 233 232 236 226 223 215 208 207 211 207 204 190 188 184 181 172 164 156 160 160 172 174 174 178 175 168 160 157 156 155 164 158 149 146 152 151 156 159 156 146 150 149 145 163 166 154 -9999 -9999 -9999 -9999 -9999 -9999 -9999 -9999 -9999 -9999 -9999 -9999 -9999 -9999 -9999 -9999 -9999 -9999 -9999 -9999 -9999 -9999 -9999 -9999 -9999 -9999 -9999 -9999 -9999 -9999 -9999 -9999 -9999 -9999 -9999 -9999 -9999 -9999 -9999 -9999 -9999 -9999 -9999 -9999 -9999 -9999 -9999 -9999 -9999 -9999 -9999 -9999 -9999 -9999 -9999 -9999 -9999 -9999 -9999 -9999 -9999 -9999 -9999 -9999 -9999 -9999 -9999 -9999 -9999 -9999 -9999 -9999 -9999 -9999 -9999 -9999 -9999 -9999 -9999 -9999 -9999 -9999 -9999 -9999 -9999 -9999 -9999 -9999 -9999 -9999 -9999 -9999 -9999 -9999 -9999 -9999 -9999 -9999 -9999 -9999 -9999 -9999 -9999 -9999 -9999 -9999 -9999 -9999 -9999 -9999 -9999 -9999 -9999 -9999 -9999 -9999 -9999 -9999 -9999 -9999 -9999 -9999 -9999 -9999 -9999 -9999 -9999 -9999 -9999 -9999 -9999 -9999 -9999 -9999 -9999 -9999 -9999 -9999 -9999 -9999 -9999 -9999 -9999 -9999 -9999 -9999 -9999 -9999 -9999 -9999 -9999 -9999 -9999 -9999 -9999 -9999 -9999 -9999 -9999 -9999 -9999 -9999 -9999 -9999 -9999 -9999 -9999 -9999 -9999 -9999 -9999 -9999 -9999 -9999 -9999 -9999 -9999 -9999 -9999 -9999 -9999 -9999 -9999 -9999 -9999 -9999 -9999 -9999 -9999 -9999 -9999 -9999
-9999 -9999 -9999 1378 1226 999 1022 1106 1063 1091 967 979 991 1043 1086 1163 1130 1267 1415 1450 1368 1352 1321 1295 1245 1133 963 816 738 690 680 727 812 955 881 761 724 707 780 778 733 668 686 634 642 667 703 835 900 890 752 716 696 697 684 702 765 917 979 1042 988 1057 1126 1266 1272 1367 1431 1287 1242 1195 1176 1140 1205 1170 1158 1180 1308 1317 1212 1115 1070 1006 1157 1120 1188 1202 1146 1276 1286 1303 1315 1313 1190 999 952 930 947 940 939 922 864 869 835 809 821 797 731 735 742 728 680 669 693 738 743 731 723 758 778 878 897 938 936 919 926 949 908 918 911 902 873 877 895 911 925 929 939 936 915 929 857 673 582 510 499 528 460 394 412 457 448 520 526 409 361 363 392 436 396 362 391 469 547 580 574 678 759 794 775 648 539 527 537 435 385 364 391 339 315 311 324 309 290 296 288 286 288 280 288 289 273 288 307 285 281 286 310 309 320 310 299 296 288 276 264 260 265 269 259 249 276 285 285 283 285 283 273 264 253 259 266 274 267 252 260 271 273 270 276 284 295 296 287 288 279 282 301 292 288 280 279 274 274 268 262 258 258 260 263 260 257 251 239 232 226 215 196 192 200 211 226 232 225 208 182 197 216 249 304 287 251 229 233 225 228 232 215 215 222 238 260 275 288 268 254 235 238 234 247 236 249 262 251 242 249 255 254 245 258 253 242 240 231 228 218 217 224 225 224 221 213 211 201 201 220 208 200 201 205 200 198 188 177 193 219 219 208 205 194 187 193 199 195 190 190 198 197 190 187 183 194 208 201 200 198 188 202 211 217 210 197 206 213 201 194 192 187 185 202 210 213 204 199 214 225 226 235 237 229 224 218 213 200 200 201 196 191 184 177 177 169 162 160 165 168 177 173 167 168 165 164 169 165 168 161 162 154 150 157 162 160 163 161 158 -9999 -9999 -9999 -9999 -9999 -9999 -9999 -9999 -9999 -9999 -9999 -9999 -9999 -9999 -9999 -9999 -9999 -9999 -9999 -9999 -9999 -9999 -9999 -9999 -9999 -9999 -9999 -9999 -9999 -9999 -9999 -9999 -9999 -9999 -9999 -9999 -9999 -9999 -9999 -9999 -9999 -9999 -9999 -9999 -9999 -9999 -9999 -9999 -9999 -9999 -9999 -9999 -9999 -9999 -9999 -9999 -9999 -9999 -9999 -9999 -9999 -9999 -9999 -9999 -9999 -9999 -9999 -9999 -9999 -9999 -9999 -9999 -9999 -9999 -9999 -9999 -9999 -9999 -9999 -9999 -9999 -9999 -9999 -9999 -9999 -9999 -9999 -9999 -9999 -9999 -9999 -9999 -9999 -9999 -9999 -9999 -9999 -9999 -9999 -9999 -9999 -9999 -9999 -9999 -9999 -9999 -9999 -9999 -9999 -9999 -9999 -9999 -9999 -9999 -9999 -9999 -9999 -9999 -9999 -9999 -9999 -9999 -9999 -9999 -9999 -9999 -9999 -9999 -9999 -9999 -9999 -9999 -9999 -9999 -9999 -9999 -9999 -9999 -9999 -9999 -9999 -9999 -9999 -9999 -9999 -9999 -9999 -9999 -9999 -9999 -9999 -9999 -9999 -9999 -9999 -9999 -9999 -9999 -9999 -9999 -9999 -9999 -9999 -9999 -9999 -9999 -9999 -9999 -9999 -9999 -9999 -9999 -9999 -9999 -9999 -9999 -9999 -9999 -9999 -9999 -9999 -9999 -9999 -9999 -9999 -9999 -9999 -9999 -9999 -9999 -9999 -9999 -9999 -9999 -9999 -9999 -9999 -9999 -9999
-9999 -9999 1158 1164 1141 941 1000 1145 1103 1222 1093 1037 992 1019 998 1072 1210 1256 1275 1283 1275 1222 1325 1257 1044 949 879 783 743 740 718 711 794 888 967 838 805 768 754 705 672 658 667 630 643 667 703 848 1018 877 756 881 910 903 723 716 845 935 872 916 983 1017 1099 1169 1195 1293 1358 1228 1206 1166 1146 1159 1200 1184 1137 1213 1209 1161 1108 1046 1031 993 1014 1003 1055 1127 1058 1030 1094 1193 1288 1353 1113 1005 947 940 928 927 920 870 854 856 840 837 811 753 790 823 748 724 703 723 724 718 746 744 736 743 840 888 871 893 916 962 940 930 936 957 935 921 934 925 916 913 882 826 832 749 693 668 510 433 395 375 375 390 386 505 457 436 472 517 475 370 360 347 381 370 357 425 468 447 452 453 484 527 559 538 496 451 451 434 413 379 345 334 338 344 333 313 309 298 290 300 293 288 291 276 272 272 266 281 299 291 272 277 289 285 284 285 289 295 280 279 277 268 260 258 263 250 264 271 275 273 276 272 281 272 254 251 256 260 259 248 262 261 273 278 283 279 291 295 291 294 292 307 312 298 292 285 300 269 262 262 264 263 257 247 252 251 241 244 244 232 229 222 209 194 190 211 205 205 190 184 186 200 229 251 252 245 230 221 219 222 224 238 220 220 245 257 268 263 259 257 236 229 233 235 226 242 255 260 260 252 260 284 276 251 255 248 245 236 234 227 220 216 209 207 211 208 210 216 210 198 199 202 203 193 195 189 188 187 185 180 187 198 211 208 200 194 198 198 198 189 187 194 199 194 184 183 188 199 197 199 194 187 205 209 209 199 197 207 203 193 189 184 192 199 204 207 215 217 212 210 218 228 236 232 222 219 220 213 198 193 196 195 188 178 169 168 168 165 169 172 176 177 179 173 174 166 174 177 170 169 165 160 -9999 -9999 -9999 -9999 -9999 -9999 -9999 -9999 -9999 -9999 -9999 -9999 -9999 -9999 -9999 -9999 -9999 -9999 -9999 -9999 -9999 -9999 -9999 -9999 -9999 -9999 -9999 -9999 -9999 -9999 -9999 -9999 -9999 -9999 -9999 -9999 -9999 -9999 -9999 -9999 -9999 -9999 -9999 -9999 -9999 -9999 -9999 -9999 -9999 -9999 -9999 -9999 -9999 -9999 -9999 -9999 -9999 -9999 -9999 -9999 -9999 -9999 -9999 -9999 -9999 -9999 -9999 -9999 -9999 -9999 -9999 -9999 -9999 -9999 -9999 -9999 -9999 -9999 -9999 -9999 -9999 -9999 -9999 -9999 -9999 -9999 -9999 -9999 -9999 -9999 -9999 -9999 -9999 -9999 -9999 -9999 -9999 -9999 -9999 -9999 -9999 -9999 -9999 -9999 -9999 -9999 -9999 -9999 -9999 -9999 -9999 -9999 -9999 -9999 -9999 -9999 -9999 -9999 -9999 -9999 -9999 -9999 -9999 -9999 -9999 -9999 -9999 -9999 -9999 -9999 -9999 -9999 -9999 -9999 -9999 -9999 -9999 -9999 -9999 -9999 -9999 -9999 -9999 -9999 -9999 -9999 -9999 -9999 -9999 -9999 -9999 -9999 -9999 -9999 -9999 -9999 -9999 -9999 -9999 -9999 -9999 -9999 -9999 -9999 -9999 -9999 -9999 -9999 -9999 -9999 -9999 -9999 -9999 -9999 -9999 -9999 -9999 -9999 -9999 -9999 -9999 -9999 -9999 -9999 -9999 -9999 -9999 -9999 -9999 -9999 -9999 -9999 -9999 -9999 -9999 -9999 -9999 -9999 -9999 -9999 -9999 -9999 -9999 -9999 -9999 -9999 -9999
-9999 -9999 1050 1071 988 858 987 1093 1201 1265 1185 1056 1011 1036 1007 1024 1125 1197 1205 1131 1109 1210 1208 1191 1134 963 865 839 785 741 819 727 703 785 923 800 714 681 675 673 668 652 654 628 651 693 742 915 985 926 885 1050 1046 807 761 742 846 906 967 966 1058 1175 1189 1163 1203 1217 1257 1275 1203 1173 1147 1175 1227 1185 1185 1143 1103 1074 1092 1098 1096 1094 975 986 990 1011 1032 988 966 1003 1043 1050 1055 1000 985 957 942 882 878 851 858 843 857 835 763 781 764 818 795 768 717 860 814 780 835 823 766 737 802 830 886 860 893 920 886 929 947 947 951 955 945 914 893 877 789 692 699 707 684 660 600 524 431 379 362 397 398 406 433 471 466 418 378 366 359 346 349 365 399 407 441 437 446 435 416 427 405 377 366 373 397 389 362 345 344 352 334 334 329 328 330 315 313 318 313 310 306 291 289 283 278 265 273 291 281 266 272 285 273 275 278 283 269 262 261 267 274 272 269 258 249 245 248 260 258 262 269 272 260 249 247 255 245 250 267 275 279 271 266 275 287 282 279 284 293 321 327 312 289 262 268 264 252 254 249 249 249 237 236 241 236 229 234 237 225 221 208 194 182 186 183 181 197 208 217 219 231 232 234 241 242 234 215 206 212 220 205 223 240 237 233 249 249 231 230 219 239 233 227 237 241 257 261 260 267 259 252 246 236 242 246 244 239 227 228 230 223 210 219 213 205 201 197 201 196 189 195 201 195 195 195 200 207 197 178 189 207 211 204 200 196 197 194 193 187 191 198 193 186 181 178 171 190 199 185 186 198 196 198 188 195 187 180 177 183 192 205 209 214 216 222 223 221 223 225 234 229 228 225 212 207 210 208 203 194 187 178 175 171 171 172 176 177 175 177 180 186 184 178 -9999 -9999 -9999 -9999 -9999 -9999 -9999 -9999 -9999 -9999 -9999 -9999 -9999 -9999 -9999 -9999 -9999 -9999 -9999 -9999 -9999 -9999 -9999 -9999 -9999 -9999 -9999 -9999 -9999 -9999 -9999 -9999 -9999 -9999 -9999 -9999 -9999 -9999 -9999 -9999 -9999 -9999 -9999 -9999 -9999 -9999 -9999 -9999 -9999 -9999 -9999 -9999 -9999 -9999 -9999 -9999 -9999 -9999 -9999 -9999 -9999 -9999 -9999 -9999 -9999 -9999 -9999 -9999 -9999 -9999 -9999 -9999 -9999 -9999 -9999 -9999 -9999 -9999 -9999 -9999 -9999 -9999 -9999 -9999 -9999 -9999 -9999 -9999 -9999 -9999 -9999 -9999 -9999 -9999 -9999 -9999 -9999 -9999 -9999 -9999 -9999 -9999 -9999 -9999 -9999 -9999 -9999 -9999 -9999 -9999 -9999 -9999 -9999 -9999 -9999 -9999 -9999 -9999 -9999 -9999 -9999 -9999 -9999 -9999 -9999 -9999 -9999 -9999 -9999 -9999 -9999 -9999 -9999 -9999 -9999 -9999 -9999 -9999 -9999 -9999 -9999 -9999 -9999 -9999 -9999 -9999 -9999 -9999 -9999 -9999 -9999 -9999 -9999 -9999 -9999 -9999 -9999 -9999 -9999 -9999 -9999 -9999 -9999 -9999 -9999 -9999 -9999 -9999 -9999 -9999 -9999 -9999 -9999 -9999 -9999 -9999 -9999 -9999 -9999 -9999 -9999 -9999 -9999 -9999 -9999 -9999 -9999 -9999 -9999 -9999 -9999 -9999 -9999 -9999 -9999 -9999 -9999 -9999 -9999 -9999 -9999 -9999 -9999 -9999 -9999 -9999 -9999 -9999 -9999 -9999 -9999 -9999 -9999 -9999
-9999 -9999 965 926 859 804 904 927 1068 1146 1172 1081 1152 1052 1068 1063 1057 1167 1137 1072 1155 1204 1122 1234 1271 1086 958 884 833 814 850 740 768 757 808 840 765 742 693 656 642 646 647 637 656 725 844 823 907 1053 1136 1067 946 936 970 923 907 901 948 1068 1195 1246 1241 1285 1291 1353 1351 1400 1261 1185 1174 1204 1184 1190 1176 1099 1074 1093 1118 1134 1196 1140 992 1024 1031 977 976 978 967 946 939 937 974 958 964 963 946 830 845 849 847 851 773 737 737 686 679 766 849 849 764 780 839 840 863 879 826 756 793 776 792 794 795 810 868 959 939 926 944 917 907 875 905 900 869 879 906 844 752 593 466 407 358 348 396 378 379 435 462 434 405 424 469 408 331 348 370 421 455 455 444 399 366 363 395 406 372 357 351 385 404 371 356 355 328 324 323 316 320 333 330 322 315 315 310 310 311 303 289 283 280 268 264 275 276 274 263 260 264 260 257 265 256 250 252 252 257 267 271 265 258 255 249 240 248 244 241 247 245 252 253 240 236 260 271 268 275 265 261 268 275 270 276 288 293 301 322 291 264 251 251 250 246 246 256 252 243 248 238 230 229 226 219 220 209 210 217 212 200 180 189 203 202 221 224 231 234 228 220 224 241 237 227 219 206 199 220 226 237 216 226 242 235 232 217 216 234 218 233 250 257 252 252 255 255 248 242 237 230 235 243 249 244 235 234 231 222 221 228 222 214 206 196 195 202 192 190 189 183 193 200 210 203 190 179 182 199 201 201 197 191 191 187 190 186 194 198 195 186 188 179 180 197 191 179 184 189 184 181 184 187 178 180 187 186 191 197 210 216 218 215 215 215 222 223 233 231 222 220 214 205 200 201 198 196 191 181 175 175 180 177 178 -9999 -9999 -9999 -9999 -9999 -9999 -9999 -9999 -9999 -9999 -9999 -9999 -9999 -9999 -9999 -9999 -9999 -9999 -9999 -9999 -9999 -9999 -9999 -9999 -9999 -9999 -9999 -9999 -9999 -9999 -9999 -9999 -9999 -9999 -9999 -9999 -9999 -9999 -9999 -9999 -9999 -9999 -9999 -9999 -9999 -9999 -9999 -9999 -9999 -9999 -9999 -9999 -9999 -9999 -9999 -9999 -9999 -9999 -9999 -9999 -9999 -9999 -9999 -9999 -9999 -9999 -9999 -9999 -9999 -9999 -9999 -9999 -9999 -9999 -9999 -9999 -9999 -9999 -9999 -9999 -9999 -9999 -9999 -9999 -9999 -9999 -9999 -9999 -9999 -9999 -9999 -9999 -9999 -9999 -9999 -9999 -9999 -9999 -9999 -9999 -9999 -9999 -9999 -9999 -9999 -9999 -9999 -9999 -9999 -9999 -9999 -9999 -9999 -9999 -9999 -9999 -9999 -9999 -9999 -9999 -9999 -9999 -9999 -9999 -9999 -9999 -9999 -9999 -9999 -9999 -9999 -9999 -9999 -9999 -9999 -9999 -9999 -9999 -9999 -9999 -9999 -9999 -9999 -9999 -9999 -9999 -9999 -9999 -9999 -9999 -9999 -9999 -9999 -9999 -9999 -9999 -9999 -9999 -9999 -9999 -9999 -9999 -9999 -9999 -9999 -9999 -9999 -9999 -9999 -9999 -9999 -9999 -9999 -9999 -9999 -9999 -9999 -9999 -9999 -9999 -9999 -9999 -9999 -9999 -9999 -9999 -9999 -9999 -9999 -9999 -9999 -9999 -9999 -9999 -9999 -9999 -9999 -9999 -9999 -9999 -9999 -9999 -9999 -9999 -9999 -9999 -9999 -9999 -9999 -9999 -9999 -9999 -9999 -9999 -9999 -9999 -9999 -9999 -9999 -9999 -9999
-9999 917 869 762 757 785 836 845 931 988 1180 1254 1233 1137 1076 1143 1146 1052 1088 1060 1104 1069 1069 1121 1212 1203 1121 929 862 807 769 743 806 798 750 823 794 727 699 732 684 662 650 633 670 749 744 884 1053 1113 1249 1207 1070 1044 1013 978 909 949 1024 1042 1100 1150 1217 1258 1295 1305 1278 1326 1313 1276 1211 1147 1093 1060 1062 1071 1072 1082 1100 1080 1142 1207 1171 1111 1063 1006 1046 1012 1001 967 929 922 933 979 959 938 863 769 747 809 839 745 682 684 679 644 653 687 835 874 835 862 814 830 902 847 830 817 812 828 799 798 811 836 882 926 934 928 913 871 727 595 633 800 882 808 754 651 507 484 503 431 388 350 372 388 420 421 409 420 419 436 457 360 369 388 429 407 407 377 357 350 374 357 341 357 341 345 348 345 339 338 315 315 312 302 306 316 309 322 324 319 311 308 307 296 304 291 285 273 266 277 273 265 261 259 255 269 260 277 272 258 255 264 263 264 258 254 254 259 268 266 263 253 248 246 240 238 236 235 249 245 239 246 262 262 269 256 256 262 264 274 280 278 271 274 280 264 252 246 251 238 232 245 259 263 261 255 244 235 225 228 219 214 209 196 208 216 208 187 186 202 216 227 229 222 216 210 219 234 238 229 237 231 212 198 211 214 214 214 231 227 218 216 205 215 211 214 231 239 250 234 242 242 241 246 244 238 223 225 235 240 244 235 238 233 233 229 221 214 208 207 206 207 221 210 199 192 190 182 188 196 187 178 176 182 194 204 204 199 190 187 186 183 183 193 196 189 171 186 176 177 190 180 183 191 185 176 185 187 177 176 180 186 192 197 199 206 203 206 202 206 207 214 225 232 227 217 212 207 202 202 197 193 191 -9999 -9999 -9999 -9999 -9999 -9999 -9999 -9999 -9999 -9999 -9999 -9999 -9999 -9999 -9999 -9999 -9999 -9999 -9999 -9999 -9999 -9999 -9999 -9999 -9999 -9999 -9999 -9999 -9999 -9999 -9999 -9999 -9999 -9999 -9999 -9999 -9999 -9999 -9999 -9999 -9999 -9999 -9999 -9999 -9999 -9999 -9999 -9999 -9999 -9999 -9999 -9999 -9999 -9999 -9999 -9999 -9999 -9999 -9999 -9999 -9999 -9999 -9999 -9999 -9999 -9999 -9999 -9999 -9999 -9999 -9999 -9999 -9999 -9999 -9999 -9999 -9999 -9999 -9999 -9999 -9999 -9999 -9999 -9999 -9999 -9999 -9999 -9999 -9999 -9999 -9999 -9999 -9999 -9999 -9999 -9999 -9999 -9999 -9999 -9999 -9999 -9999 -9999 -9999 -9999 -9999 -9999 -9999 -9999 -9999 -9999 -9999 -9999 -9999 -9999 -9999 -9999 -9999 -9999 -9999 -9999 -9999 -9999 -9999 -9999 -9999 -9999 -9999 -9999 -9999 -9999 -9999 -9999 -9999 -9999 -9999 -9999 -9999 -9999 -9999 -9999 -9999 -9999 -9999 -9999 -9999 -9999 -9999 -9999 -9999 -9999 -9999 -9999 -9999 -9999 -9999 -9999 -9999 -9999 -9999 -9999 -9999 -9999 -9999 -9999 -9999 -9999 -9999 -9999 -9999 -9999 -9999 -9999 -9999 -9999 -9999 -9999 -9999 -9999 -9999 -9999 -9999 -9999 -9999 -9999 -9999 -9999 -9999 -9999 -9999 -9999 -9999 -9999 -9999 -9999 -9999 -9999 -9999 -9999 -9999 -9999 -9999 -9999 -9999 -9999 -9999 -9999 -9999 -9999 -9999 -9999 -9999 -9999 -9999 -9999 -9999 -9999 -9999 -9999 -9999 -9999 -9999 -9999 -9999 -9999 -9999 -9999 -9999
-9999 731 703 721 710 725 741 804 837 972 1127 1190 1148 1075 1033 1061 1124 1201 1216 1123 1078 1040 1035 1062 1061 1143 1108 1006 930 867 871 839 924 831 821 982 934 827 818 741 686 669 639 641 677 738 829 1000 971 1045 1126 1319 1243 1103 1110 1045 984 935 1095 1200 1152 1221 1270 1292 1256 1234 1213 1221 1232 1317 1301 1207 1067 1039 971 1072 1097 1073 1077 1068 1087 1185 1143 1179 1098 1029 1141 1071 1073 1013 947 923 927 924 944 885 823 745 603 685 654 595 642 651 630 625 633 676 794 933 890 881 880 870 941 869 807 839 801 824 888 950 945 889 909 977 949 947 853 790 741 596 489 550 687 717 654 593 598 557 491 460 391 358 390 370 369 388 392 382 411 385 366 339 369 365 383 375 380 377 366 342 352 344 328 328 319 336 347 337 330 318 321 321 314 313 311 299 301 304 306 321 313 300 303 290 289 279 289 289 291 284 283 280 270 263 277 288 279 294 285 284 269 274 280 290 276 262 258 257 276 280 271 259 250 251 269 266 258 244 237 227 234 235 247 255 269 256 264 273 278 275 282 267 258 258 259 250 248 238 229 223 241 253 251 253 258 246 244 243 235 223 214 210 203 194 193 199 203 191 182 203 211 219 211 202 204 224 240 247 230 220 223 233 225 202 188 196 210 216 210 224 210 194 211 234 235 237 238 247 234 226 224 240 236 231 238 231 226 221 235 237 235 228 231 234 229 229 227 220 220 218 217 220 217 208 209 208 200 193 186 183 179 180 199 207 216 213 213 203 199 190 184 180 181 189 192 195 184 177 170 171 175 176 185 183 176 178 181 176 173 186 191 195 196 194 189 190 193 203 209 209 213 215 223 231 226 223 -9999 -9999 -9999 -9999 -9999 -9999 -9999 -9999 -9999 -9999 -9999 -9999 -9999 -9999 -9999 -9999 -9999 -9999 -9999 -9999 -9999 -9999 -9999 -9999 -9999 -9999 -9999 -9999 -9999 -9999 -9999 -9999 -9999 -9999 -9999 -9999 -9999 -9999 -9999 -9999 -9999 -9999 -9999 -9999 -9999 -9999 -9999 -9999 -9999 -9999 -9999 -9999 -9999 -9999 -9999 -9999 -9999 -9999 -9999 -9999 -9999 -9999 -9999 -9999 -9999 -9999 -9999 -9999 -9999 -9999 -9999 -9999 -9999 -9999 -9999 -9999 -9999 -9999 -9999 -9999 -9999 -9999 -9999 -9999 -9999 -9999 -9999 -9999 -9999 -9999 -9999 -9999 -9999 -9999 -9999 -9999 -9999 -9999 -9999 -9999 -9999 -9999 -9999 -9999 -9999 -9999 -9999 -9999 -9999 -9999 -9999 -9999 -9999 -9999 -9999 -9999 -9999 -9999 -9999 -9999 -9999 -9999 -9999 -9999 -9999 -9999 -9999 -9999 -9999 -9999 -9999 -9999 -9999 -9999 -9999 -9999 -9999 -9999 -9999 -9999 -9999 -9999 -9999 -9999 -9999 -9999 -9999 -9999 -9999 -9999 -9999 -9999 -9999 -9999 -9999 -9999 -9999 -9999 -9999 -9999 -9999 -9999 -9999 -9999 -9999 -9999 -9999 -9999 -9999 -9999 -9999 -9999 -9999 -9999 -9999 -9999 -9999 -9999 -9999 -9999 -9999 -9999 -9999 -9999 -9999 -9999 -9999 -9999 -9999 -9999 -9999 -9999 -9999 -9999 -9999 -9999 -9999 -9999 -9999 -9999 -9999 -9999 -9999 -9999 -9999 -9999 -9999 -9999 -9999 -9999 -9999 -9999 -9999 -9999 -9999 -9999 -9999 -9999 -9999 -9999 -9999 -9999 -9999 -9999 -9999 -9999 -9999 -9999 -9999 -9999 -9999 -9999 -9999 -9999 -9999
-9999 649 658 683 693 739 827 824 848 897 1044 1152 1076 1095 1046 1057 1168 1189 1284 1212 1112 1134 1128 1136 1098 1099 1264 1221 1030 1015 1074 972 928 828 891 952 931 924 910 838 703 681 650 629 685 833 931 890 862 939 1015 1123 1303 1215 1094 1077 985 1035 1077 1138 1134 1151 1210 1237 1207 1203 1206 1236 1253 1249 1272 1265 1278 1236 984 973 1008 1019 1061 1076 1083 1126 1084 1145 1225 1069 1017 1010 1005 1009 972 964 931 846 838 850 766 741 668 578 517 553 641 626 604 665 711 703 813 947 946 825 895 964 981 888 859 865 868 885 875 936 896 868 880 937 929 869 638 526 529 472 450 500 582 581 538 494 459 415 409 447 421 350 328 374 384 381 370 382 369 353 340 321 346 340 363 373 382 368 375 341 331 310 312 307 305 330 330 332 334 330 330 330 327 314 311 309 309 303 288 304 313 308 300 287 286 285 307 306 291 278 290 286 275 282 285 302 296 307 298 289 278 282 292 294 285 268 273 267 274 283 274 260 271 264 278 277 269 266 256 241 230 227 252 267 269 251 262 266 269 286 279 264 252 254 246 239 230 226 216 212 229 248 242 241 245 234 233 234 224 220 224 221 225 217 208 195 190 183 179 199 203 205 194 205 226 242 244 224 216 204 215 211 212 196 181 190 199 205 217 215 194 207 216 232 231 247 246 236 218 217 215 229 230 236 231 226 216 217 229 231 226 220 220 226 222 218 220 223 222 215 230 236 223 215 208 204 200 200 191 177 177 186 188 197 209 219 222 218 215 201 193 186 180 184 194 196 187 181 166 168 173 173 182 175 173 183 175 172 181 194 198 195 186 187 191 201 202 210 222 223 -9999 -9999 -9999 -9999 -9999 -9999 -9999 -9999 -9999 -9999 -9999 -9999 -9999 -9999 -9999 -9999 -9999 -9999 -9999 -9999 -9999 -9999 -9999 -9999 -9999 -9999 -9999 -9999 -9999 -9999 -9999 -9999 -9999 -9999 -9999 -9999 -9999 -9999 -9999 -9999 -9999 -9999 -9999 -9999 -9999 -9999 -9999 -9999 -9999 -9999 -9999 -9999 -9999 -9999 -9999 -9999 -9999 -9999 -9999 -9999 -9999 -9999 -9999 -9999 -9999 -9999 -9999 -9999 -9999 -9999 -9999 -9999 -9999 -9999 -9999 -9999 -9999 -9999 -9999 -9999 -9999 -9999 -9999 -9999 -9999 -9999 -9999 -9999 -9999 -9999 -9999 -9999 -9999 -9999 -9999 -9999 -9999 -9999 -9999 -9999 -9999 -9999 -9999 -9999 -9999 -9999 -9999 -9999 -9999 -9999 -9999 -9999 -9999 -9999 -9999 -9999 -9999 -9999 -9999 -9999 -9999 -9999 -9999 -9999 -9999 -9999 -9999 -9999 -9999 -9999 -9999 -9999 -9999 -9999 -9999 -9999 -9999 -9999 -9999 -9999 -9999 -9999 -9999 -9999 -9999 -9999 -9999 -9999 -9999 -9999 -9999 -9999 -9999 -9999 -9999 -9999 -9999 -9999 -9999 -9999 -9999 -9999 -9999 -9999 -9999 -9999 -9999 -9999 -9999 -9999 -9999 -9999 -9999 -9999 -9999 -9999 -9999 -9999 -9999 -9999 -9999 -9999 -9999 -9999 -9999 -9999 -9999 -9999 -9999 -9999 -9999 -9999 -9999 -9999 -9999 -9999 -9999 -9999 -9999 -9999 -9999 -9999 -9999 -9999 -9999 -9999 -9999 -9999 -9999 -9999 -9999 -9999 -9999 -9999 -9999 -9999 -9999 -9999 -9999 -9999 -9999 -9999 -9999 -9999 -9999 -9999 -9999 -9999 -9999 -9999 -9999 -9999 -9999 -9999 -9999 -9999 -9999 -9999 -9999 -9999 -9999
-9999 709 716 741 781 800 803 872 988 1078 1240 1244 1224 1199 1091 1052 1194 1225 1219 1194 1216 1301 1206 1184 1170 1090 1196 1290 1211 1240 1262 1113 1032 907 1007 878 792 746 750 750 693 667 644 645 752 767 738 718 731 777 872 927 1026 1232 1222 1133 1083 1066 1024 1045 1077 1120 1219 1204 1213 1219 1196 1216 1245 1241 1252 1259 1242 1052 952 902 935 939 985 1154 1089 1083 1087 1195 1235 1110 1061 1008 947 922 902 1013 984 790 787 804 794 772 640 550 508 489 501 534 615 731 811 802 936 962 825 706 779 878 925 869 871 891 938 949 914 889 882 791 735 779 750 627 553 437 414 394 406 436 441 427 436 415 402 361 353 377 370 345 335 349 347 339 364 364 377 364 331 333 344 349 374 383 387 398 357 336 342 324 303 299 312 318 318 314 331 350 347 361 345 332 319 303 298 297 289 289 298 301 312 301 302 309 315 311 295 282 293 291 279 290 306 303 299 303 303 286 278 275 279 290 281 268 275 269 277 284 277 269 277 279 273 273 262 259 246 239 235 225 245 261 258 248 249 253 271 282 267 267 253 244 247 253 252 250 229 220 227 244 243 228 228 230 220 227 232 235 233 231 230 220 219 213 204 193 182 179 184 206 195 238 229 217 229 211 197 197 209 191 197 182 185 204 211 210 216 213 186 207 222 217 227 237 230 228 210 209 211 228 239 242 237 234 224 218 211 218 223 214 213 215 219 217 211 215 209 205 222 217 215 234 231 205 203 188 193 178 180 204 205 203 215 219 224 216 208 202 195 190 186 187 201 200 193 181 173 178 175 176 177 170 183 179 170 177 178 179 179 180 181 -9999 -9999 -9999 -9999 -9999 -9999 -9999 -9999 -9999 -9999 -9999 -9999 -9999 -9999 -9999 -9999 -9999 -9999 -9999 -9999 -9999 -9999 -9999 -9999 -9999 -9999 -9999 -9999 -9999 -9999 -9999 -9999 -9999 -9999 -9999 -9999 -9999 -9999 -9999 -9999 -9999 -9999 -9999 -9999 -9999 -9999 -9999 -9999 -9999 -9999 -9999 -9999 -9999 -9999 -9999 -9999 -9999 -9999 -9999 -9999 -9999 -9999 -9999 -9999 -9999 -9999 -9999 -9999 -9999 -9999 -9999 -9999 -9999 -9999 -9999 -9999 -9999 -9999 -9999 -9999 -9999 -9999 -9999 -9999 -9999 -9999 -9999 -9999 -9999 -9999 -9999 -9999 -9999 -9999 -9999 -9999 -9999 -9999 -9999 -9999 -9999 -9999 -9999 -9999 -9999 -9999 -9999 -9999 -9999 -9999 -9999 -9999 -9999 -9999 -9999 -9999 -9999 -9999 -9999 -9999 -9999 -9999 -9999 -9999 -9999 -9999 -9999 -9999 -9999 -9999 -9999 -9999 -9999 -9999 -9999 -9999 -9999 -9999 -9999 -9999 -9999 -9999 -9999 -9999 -9999 -9999 -9999 -9999 -9999 -9999 -9999 -9999 -9999 -9999 -9999 -9999 -9999 -9999 -9999 -9999 -9999 -9999 -9999 -9999 -9999 -9999 -9999 -9999 -9999 -9999 -9999 -9999 -9999 -9999 -9999 -9999 -9999 -9999 -9999 -9999 -9999 -9999 -9999 -9999 -9999 -9999 -9999 -9999 -9999 -9999 -9999 -9999 -9999 -9999 -9999 -9999 -9999 -9999 -9999 -9999 -9999 -9999 -9999 -9999 -9999 -9999 -9999 -9999 -9999 -9999 -9999 -9999 -9999 -9999 -9999 -9999 -9999 -9999 -9999 -9999 -9999 -9999 -9999 -9999 -9999 -9999 -9999 -9999 -9999 -9999 -9999 -9999 -9999 -9999 -9999 -9999 -9999 -9999 -9999 -9999 -9999 -9999 -9999 -9999 -9999 -9999 -9999 -9999
706 752 686 745 779 874 1028 1051 1128 1342 1410 1416 1344 1163 1206 1185 1102 1137 1172 1293 1420 1387 1206 1179 1138 1078 1122 1194 1263 1402 1372 1166 1071 1082 1038 962 922 826 753 696 694 656 648 665 695 670 685 715 778 735 765 791 902 1075 1182 1225 1107 1080 1123 1074 1054 1106 1149 1173 1167 1161 1163 1170 1207 1186 1004 924 952 921 879 912 885 919 1068 1085 1072 1067 1097 1107 1092 1095 1052 1039 984 903 863 912 917 703 550 655 712 690 603 600 604 548 415 530 619 673 744 874 924 796 660 653 739 771 832 918 913 896 981 917 840 807 810 742 573 548 512 431 423 377 373 366 381 381 361 349 366 366 365 360 339 351 367 361 346 328 323 352 367 367 359 328 325 359 380 368 357 372 366 376 374 334 308 309 314 292 307 302 312 329 352 358 355 351 363 345 324 312 303 295 286 282 292 295 298 309 315 318 321 307 297 300 290 306 297 310 321 303 299 280 291 287 278 274 265 280 280 277 281 278 286 293 281 273 287 284 273 265 257 250 248 249 244 227 236 252 251 239 249 258 275 279 266 254 252 262 275 276 262 249 239 221 221 227 231 227 213 213 218 228 241 239 232 225 217 224 219 210 204 195 187 180 176 202 215 214 210 212 209 215 198 185 187 179 172 165 182 190 203 215 223 199 186 202 200 210 227 239 219 219 217 203 230 238 235 242 237 225 215 214 210 209 214 218 216 206 209 211 206 209 207 201 209 206 204 217 240 215 207 196 180 176 185 206 207 214 220 218 224 221 219 209 197 191 187 187 199 194 187 179 174 179 181 181 169 170 173 170 176 -9999 -9999 -9999 -9999 -9999 -9999 -9999 -9999 -9999 -9999 -9999 -9999 -9999 -9999 -9999 -9999 -9999 -9999 -9999 -9999 -9999 -9999 -9999 -9999 -9999 -9999 -9999 -9999 -9999 -9999 -9999 -9999 -9999 -9999 -9999 -9999 -9999 -9999 -9999 -9999 -9999 -9999 -9999 -9999 -9999 -9999 -9999 -9999 -9999 -9999 -9999 -9999 -9999 -9999 -9999 -9999 -9999 -9999 -9999 -9999 -9999 -9999 -9999 -9999 -9999 -9999 -9999 -9999 -9999 -9999 -9999 -9999 -9999 -9999 -9999 -9999 -9999 -9999 -9999 -9999 -9999 -9999 -9999 -9999 -9999 -9999 -9999 -9999 -9999 -9999 -9999 -9999 -9999 -9999 -9999 -9999 -9999 -9999 -9999 -9999 -9999 -9999 -9999 -9999 -9999 -9999 -9999 -9999 -9999 -9999 -9999 -9999 -9999 -9999 -9999 -9999 -9999 -9999 -9999 -9999 -9999 -9999 -9999 -9999 -9999 -9999 -9999 -9999 -9999 -9999 -9999 -9999 -9999 -9999 -9999 -9999 -9999 -9999 -9999 -9999 -9999 -9999 -9999 -9999 -9999 -9999 -9999 -9999 -9999 -9999 -9999 -9999 -9999 -9999 -9999 -9999 -9999 -9999 -9999 -9999 -9999 -9999 -9999 -9999 -9999 -9999 -9999 -9999 -9999 -9999 -9999 -9999 -9999 -9999 -9999 -9999 -9999 -9999 -9999 -9999 -9999 -9999 -9999 -9999 -9999 -9999 -9999 -9999 -9999 -9999 -9999 -9999 -9999 -9999 -9999 -9999 -9999 -9999 -9999 -9999 -9999 -9999 -9999 -9999 -9999 -9999 -9999 -9999 -9999 -9999 -9999 -9999 -9999 -9999 -9999 -9999 -9999 -9999 -9999 -9999 -9999 -9999 -9999 -9999 -9999 -9999 -9999 -9999 -9999 -9999 -9999 -9999 -9999 -9999 -9999 -9999 -9999 -9999 -9999 -9999 -9999 -9999 -9999 -9999 -9999 -9999 -9999 -9999 -9999 -9999 -9999 -9999 -9999 -9999
694 794 717 773 875 1046 1131 1200 1192 1204 1293 1279 1252 1079 1110 1178 1201 1136 1142 1230 1294 1308 1242 1218 1199 1233 1107 1138 1247 1362 1471 1404 1250 1088 935 822 780 734 723 698 663 685 646 656 674 739 821 779 819 898 811 801 850 939 1171 1120 1098 1071 1147 1187 1176 1164 1129 1154 1154 1199 1234 1207 1236 1178 1019 906 871 873 858 873 928 1063 1111 1064 1022 1034 1033 1032 1045 1098 1087 1013 985 970 847 879 716 635 529 442 507 537 530 548 496 418 386 507 570 668 777 891 876 743 620 629 750 765 931 996 990 882 916 858 786 692 662 525 451 406 397 393 393 382 364 354 374 372 367 361 360 336 322 328 325 351 369 382 357 333 337 354 372 370 339 326 380 371 377 370 369 340 350 333 344 323 316 304 297 288 300 315 336 352 346 332 336 348 342 333 326 322 319 306 294 284 280 288 305 317 326 322 319 314 310 306 304 312 315 320 318 300 292 294 287 279 274 272 261 278 277 273 277 280 292 290 283 282 283 285 282 273 265 260 260 261 254 234 224 238 256 235 239 260 277 276 274 264 266 271 266 262 270 254 232 223 212 211 219 213 207 221 230 238 245 255 250 242 235 227 215 228 227 216 204 200 185 173 179 195 196 202 199 201 205 190 171 164 172 191 191 202 202 218 214 204 181 196 214 225 234 226 214 207 201 213 232 224 227 240 232 234 225 224 224 222 213 208 203 207 204 203 199 196 198 199 197 192 195 205 206 200 206 193 183 176 180 189 192 203 210 204 208 216 216 214 207 198 183 178 189 193 181 175 170 185 -9999 -9999 -9999 -9999 -9999 -9999 -9999 -9999 -9999 -9999 -9999 -9999 -9999 -9999 -9999 -9999 -9999 -9999 -9999 -9999 -9999 -9999 -9999 -9999 -9999 -9999 -9999 -9999 -9999 -9999 -9999 -9999 -9999 -9999 -9999 -9999 -9999 -9999 -9999 -9999 -9999 -9999 -9999 -9999 -9999 -9999 -9999 -9999 -9999 -9999 -9999 -9999 -9999 -9999 -9999 -9999 -9999 -9999 -9999 -9999 -9999 -9999 -9999 -9999 -9999 -9999 -9999 -9999 -9999 -9999 -9999 -9999 -9999 -9999 -9999 -9999 -9999 -9999 -9999 -9999 -9999 -9999 -9999 -9999 -9999 -9999 -9999 -9999 -9999 -9999 -9999 -9999 -9999 -9999 -9999 -9999 -9999 -9999 -9999 -9999 -9999 -9999 -9999 -9999 -9999 -9999 -9999 -9999 -9999 -9999 -9999 -9999 -9999 -9999 -9999 -9999 -9999 -9999 -9999 -9999 -9999 -9999 -9999 -9999 -9999 -9999 -9999 -9999 -9999 -9999 -9999 -9999 -9999 -9999 -9999 -9999 -9999 -9999 -9999 -9999 -9999 -9999 -9999 -9999 -9999 -9999 -9999 -9999 -9999 -9999 -9999 -9999 -9999 -9999 -9999 -9999 -9999 -9999 -9999 -9999 -9999 -9999 -9999 -9999 -9999 -9999 -9999 -9999 -9999 -9999 -9999 -9999 -9999 -9999 -9999 -9999 -9999 -9999 -9999 -9999 -9999 -9999 -9999 -9999 -9999 -9999 -9999 -9999 -9999 -9999 -9999 -9999 -9999 -9999 -9999 -9999 -9999 -9999 -9999 -9999 -9999 -9999 -9999 -9999 -9999 -9999 -9999 -9999 -9999 -9999 -9999 -9999 -9999 -9999 -9999 -9999 -9999 -9999 -9999 -9999 -9999 -9999 -9999 -9999 -9999 -9999 -9999 -9999 -9999 -9999 -9999 -9999 -9999 -9999 -9999 -9999 -9999 -9999 -9999 -9999 -9999 -9999 -9999 -9999 -9999 -9999 -9999 -9999 -9999 -9999 -9999 -9999 -9999 -9999 -9999 -9999 -9999 -9999 -9999 -9999 -9999
707 708 709 832 1017 964 934 1090 1025 919 1104 996 997 845 854 976 1142 1264 1168 1255 1357 1323 1230 1226 1307 1289 1167 1103 1198 1363 1480 1505 1251 1070 963 907 801 801 870 707 691 746 654 649 657 679 846 950 893 965 931 914 1057 1050 1189 1217 1146 1208 1098 1196 1226 1204 1125 1158 1171 1174 1203 1168 1160 1183 1152 1127 894 870 882 927 1069 1132 1213 1078 1053 1028 994 975 978 1073 1050 968 996 912 814 816 604 507 509 535 430 422 513 447 422 365 483 582 682 714 774 725 777 724 615 602 674 648 794 898 998 914 838 842 759 719 611 617 714 628 525 467 417 415 383 393 384 385 370 333 339 331 343 345 345 387 416 389 339 325 340 343 358 360 332 326 346 351 368 361 351 338 332 320 316 308 301 295 289 298 294 314 306 310 314 311 318 327 325 322 322 316 318 311 301 284 281 290 303 309 310 315 304 302 302 308 320 330 328 313 300 302 295 287 295 289 282 270 261 276 280 268 267 277 288 288 276 274 270 276 284 277 276 268 262 251 248 244 239 228 246 235 242 256 272 267 264 270 274 268 256 251 261 262 249 234 221 201 203 214 221 221 229 232 233 243 257 254 241 227 236 240 233 226 228 229 206 190 173 173 172 186 193 185 190 187 164 174 191 202 211 215 220 227 203 192 179 207 218 227 224 214 199 200 196 221 224 214 220 238 242 241 237 234 232 230 227 219 222 220 212 213 209 214 215 206 213 205 199 192 189 189 193 195 184 192 178 181 196 202 195 200 208 208 205 203 203 196 188 181 -9999 -9999 -9999 -9999 -9999 -9999 -9999 -9999 -9999 -9999 -9999 -9999 -9999 -9999 -9999 -9999 -9999 -9999 -9999 -9999 -9999 -9999 -9999 -9999 -9999 -9999 -9999 -9999 -9999 -9999 -9999 -9999 -9999 -9999 -9999 -9999 -9999 -9999 -9999 -9999 -9999 -9999 -9999 -9999 -9999 -9999 -9999 -9999 -9999 -9999 -9999 -9999 -9999 -9999 -9999 -9999 -9999 -9999 -9999 -9999 -9999 -9999 -9999 -9999 -9999 -9999 -9999 -9999 -9999 -9999 -9999 -9999 -9999 -9999 -9999 -9999 -9999 -9999 -9999 -9999 -9999 -9999 -9999 -9999 -9999 -9999 -9999 -9999 -9999 -9999 -9999 -9999 -9999 -9999 -9999 -9999 -9999 -9999 -9999 -9999 -9999 -9999 -9999 -9999 -9999 -9999 -9999 -9999 -9999 -9999 -9999 -9999 -9999 -9999 -9999 -9999 -9999 -9999 -9999 -9999 -9999 -9999 -9999 -9999 -9999 -9999 -9999 -9999 -9999 -9999 -9999 -9999 -9999 -9999 -9999 -9999 -9999 -9999 -9999 -9999 -9999 -9999 -9999 -9999 -9999 -9999 -9999 -9999 -9999 -9999 -9999 -9999 -9999 -9999 -9999 -9999 -9999 -9999 -9999 -9999 -9999 -9999 -9999 -9999 -9999 -9999 -9999 -9999 -9999 -9999 -9999 -9999 -9999 -9999 -9999 -9999 -9999 -9999 -9999 -9999 -9999 -9999 -9999 -9999 -9999 -9999 -9999 -9999 -9999 -9999 -9999 -9999 -9999 -9999 -9999 -9999 -9999 -9999 -9999 -9999 -9999 -9999 -9999 -9999 -9999 -9999 -9999 -9999 -9999 -9999 -9999 -9999 -9999 -9999 -9999 -9999 -9999 -9999 -9999 -9999 -9999 -9999 -9999 -9999 -9999 -9999 -9999 -9999 -9999 -9999 -9999 -9999 -9999 -9999 -9999 -9999 -9999 -9999 -9999 -9999 -9999 -9999 -9999 -9999 -9999 -9999 -9999 -9999 -9999 -9999 -9999 -9999 -9999 -9999 -9999 -9999 -9999 -9999 -9999 -9999 -9999 -9999 -9999 -9999 -9999 -9999 -9999
640 639 739 856 925 807 858 991 881 781 910 852 766 728 784 850 944 1132 1263 1191 1301 1438 1306 1382 1422 1392 1228 1109 1211 1280 1396 1416 1395 1104 970 905 891 889 761 694 727 758 662 658 678 670 816 896 1061 1081 1053 1079 1134 1239 1300 1280 1281 1238 1154 1238 1196 1145 1179 1150 1177 1225 1226 1070 933 949 924 1025 953 876 858 952 950 1068 1091 1120 1086 1058 1036 1006 959 1032 971 958 952 849 760 726 633 565 487 440 405 398 537 448 378 473 497 547 598 665 646 640 649 579 548 540 563 612 736 913 986 939 843 802 772 805 770 762 729 577 502 405 387 387 368 366 352 351 347 349 361 316 319 326 359 365 368 344 338 325 347 367 358 357 349 334 325 347 346 343 340 343 338 315 318 321 312 300 302 313 306 294 295 299 303 306 316 318 315 309 309 308 314 300 301 281 280 288 297 292 298 313 301 289 293 316 317 311 303 293 288 292 299 291 282 288 288 272 267 270 276 266 264 281 287 283 273 264 262 271 272 281 276 262 254 253 250 242 237 233 226 228 251 255 268 267 256 256 262 266 256 246 245 247 238 218 206 194 209 214 211 212 216 235 245 250 252 244 246 240 241 248 252 224 215 206 190 190 189 182 168 168 164 169 173 174 168 177 187 204 211 211 220 227 219 213 184 186 207 217 215 202 191 190 197 227 213 208 226 233 240 244 241 241 240 236 235 232 226 214 219 221 227 227 213 222 216 207 206 204 196 187 179 184 183 199 187 176 181 188 202 201 191 204 -9999 -9999 -9999 -9999 -9999 -9999 -9999 -9999 -9999 -9999 -9999 -9999 -9999 -9999 -9999 -9999 -9999 -9999 -9999 -9999 -9999 -9999 -9999 -9999 -9999 -9999 -9999 -9999 -9999 -9999 -9999 -9999 -9999 -9999 -9999 -9999 -9999 -9999 -9999 -9999 -9999 -9999 -9999 -9999 -9999 -9999 -9999 -9999 -9999 -9999 -9999 -9999 -9999 -9999 -9999 -9999 -9999 -9999 -9999 -9999 -9999 -9999 -9999 -9999 -9999 -9999 -9999 -9999 -9999 -9999 -9999 -9999 -9999 -9999 -9999 -9999 -9999 -9999 -9999 -9999 -9999 -9999 -9999 -9999 -9999 -9999 -9999 -9999 -9999 -9999 -9999 -9999 -9999 -9999 -9999 -9999 -9999 -9999 -9999 -9999 -9999 -9999 -9999 -9999 -9999 -9999 -9999 -9999 -9999 -9999 -9999 -9999 -9999 -9999 -9999 -9999 -9999 -9999 -9999 -9999 -9999 -9999 -9999 -9999 -9999 -9999 -9999 -9999 -9999 -9999 -9999 -9999 -9999 -9999 -9999 -9999 -9999 -9999 -9999 -9999 -9999 -9999 -9999 -9999 -9999 -9999 -9999 -9999 -9999 -9999 -9999 -9999 -9999 -9999 -9999 -9999 -9999 -9999 -9999 -9999 -9999 -9999 -9999 -9999 -9999 -9999 -9999 -9999 -9999 -9999 -9999 -9999 -9999 -9999 -9999 -9999 -9999 -9999 -9999 -9999 -9999 -9999 -9999 -9999 -9999 -9999 -9999 -9999 -9999 -9999 -9999 -9999 -9999 -9999 -9999 -9999 -9999 -9999 -9999 -9999 -9999 -9999 -9999 -9999 -9999 -9999 -9999 -9999 -9999 -9999 -9999 -9999 -9999 -9999 -9999 -9999 -9999 -9999 -9999 -9999 -9999 -9999 -9999 -9999 -9999 -9999 -9999 -9999 -9999 -9999 -9999 -9999 -9999 -9999 -9999 -9999 -9999 -9999 -9999 -9999 -9999 -9999 -9999 -9999 -9999 -9999 -9999 -9999 -9999 -9999 -9999 -9999 -9999 -9999 -9999 -9999 -9999 -9999 -9999 -9999 -9999 -9999 -9999 -9999 -9999 -9999 -9999 -9999 -9999 -9999 -9999 -9999 -9999
608 631 713 700 777 710 826 821 724 698 717 682 685 743 801 848 902 967 1184 1288 1283 1365 1356 1443 1566 1453 1283 1158 1175 1333 1368 1412 1376 1181 1088 1098 1000 955 949 803 776 758 672 668 781 722 748 931 1032 1022 1090 1137 1162 1207 1362 1362 1310 1206 1213 1202 1135 1131 1149 1220 1161 1239 1250 1176 990 942 932 923 915 874 894 909 967 944 961 994 1024 1003 1119 1125 977 920 868 855 902 750 601 586 563 602 579 464 389 365 421 360 393 452 484 492 504 532 575 676 703 546 512 537 601 700 804 839 837 814 842 908 933 834 677 531 476 430 390 386 367 383 359 363 340 325 357 349 335 333 317 334 323 338 341 352 334 341 328 352 344 344 332 322 315 306 328 331 339 359 350 346 333 323 322 322 329 323 322 326 317 301 296 309 312 305 304 300 299 301 308 308 292 286 269 280 294 287 303 295 287 285 295 306 300 303 297 288 278 273 279 284 284 271 267 262 258 264 271 265 260 268 280 280 276 266 257 266 266 276 272 269 266 260 250 257 250 239 225 221 242 254 259 269 262 246 257 254 253 243 229 233 220 206 190 202 214 204 205 215 205 233 228 232 240 222 233 237 223 227 231 221 208 201 210 213 200 188 179 180 173 164 161 164 167 174 181 189 197 209 226 221 220 204 192 181 192 203 203 182 184 188 212 205 210 217 228 238 231 237 233 232 234 233 237 238 233 226 229 233 235 222 222 221 211 208 209 201 201 194 188 185 185 182 190 176 -9999 -9999 -9999 -9999 -9999 -9999 -9999 -9999 -9999 -9999 -9999 -9999 -9999 -9999 -9999 -9999 -9999 -9999 -9999 -9999 -9999 -9999 -9999 -9999 -9999 -9999 -9999 -9999 -9999 -9999 -9999 -9999 -9999 -9999 -9999 -9999 -9999 -9999 -9999 -9999 -9999 -9999 -9999 -9999 -9999 -9999 -9999 -9999 -9999 -9999 -9999 -9999 -9999 -9999 -9999 -9999 -9999 -9999 -9999 -9999 -9999 -9999 -9999 -9999 -9999 -9999 -9999 -9999 -9999 -9999 -9999 -9999 -9999 -9999 -9999 -9999 -9999 -9999 -9999 -9999 -9999 -9999 -9999 -9999 -9999 -9999 -9999 -9999 -9999 -9999 -9999 -9999 -9999 -9999 -9999 -9999 -9999 -9999 -9999 -9999 -9999 -9999 -9999 -9999 -9999 -9999 -9999 -9999 -9999 -9999 -9999 -9999 -9999 -9999 -9999 -9999 -9999 -9999 -9999 -9999 -9999 -9999 -9999 -9999 -9999 -9999 -9999 -9999 -9999 -9999 -9999 -9999 -9999 -9999 -9999 -9999 -9999 -9999 -9999 -9999 -9999 -9999 -9999 -9999 -9999 -9999 -9999 -9999 -9999 -9999 -9999 -9999 -9999 -9999 -9999 -9999 -9999 -9999 -9999 -9999 -9999 -9999 -9999 -9999 -9999 -9999 -9999 -9999 -9999 -9999 -9999 -9999 -9999 -9999 -9999 -9999 -9999 -9999 -9999 -9999 -9999 -9999 -9999 -9999 -9999 -9999 -9999 -9999 -9999 -9999 -9999 -9999 -9999 -9999 -9999 -9999 -9999 -9999 -9999 -9999 -9999 -9999 -9999 -9999 -9999 -9999 -9999 -9999 -9999 -9999 -9999 -9999 -9999 -9999 -9999 -9999 -9999 -9999 -9999 -9999 -9999 -9999 -9999 -9999 -9999 -9999 -9999 -9999 -9999 -9999 -9999 -9999 -9999 -9999 -9999 -9999 -9999 -9999 -9999 -9999 -9999 -9999 -9999 -9999 -9999 -9999 -9999 -9999 -9999 -9999 -9999 -9999 -9999 -9999 -9999 -9999 -9999 -9999 -9999 -9999 -9999 -9999 -9999 -9999 -9999 -9999 -9999 -9999 -9999 -9999 -9999 -9999 -9999 -9999 -9999 -9999 -9999 -9999 -9999
607 627 642 623 661 664 686 709 662 654 650 706 753 781 857 962 1066 1155 1242 1396 1400 1253 1121 1254 1498 1492 1362 1209 1198 1299 1319 1334 1284 1396 1260 1137 980 1068 1100 878 900 737 675 660 742 793 725 920 926 1067 1113 1120 1133 1196 1188 1179 1098 1055 1133 1070 973 956 975 994 1031 1033 1018 1045 919 878 992 948 885 857 941 896 982 888 875 899 971 959 1010 1033 1038 965 911 714 699 687 567 537 500 593 542 547 529 431 357 345 414 445 485 511 633 663 631 615 589 521 482 514 570 603 638 672 738 700 689 819 804 710 557 453 392 373 375 393 364 371 358 328 315 349 352 349 359 344 327 330 320 326 318 313 301 316 329 325 320 316 303 310 314 325 336 352 364 369 349 340 342 343 352 339 334 329 327 320 311 294 284 284 305 302 293 290 289 291 296 308 303 291 273 271 291 281 286 279 281 282 303 300 284 297 297 293 288 287 275 269 275 269 267 267 269 264 259 261 257 261 267 267 271 263 258 258 260 274 273 266 266 269 265 257 250 241 223 214 236 244 260 265 264 252 239 235 235 227 218 214 222 211 187 195 205 189 189 196 205 214 223 243 240 223 221 225 211 213 224 223 220 219 218 208 195 186 206 193 176 162 152 183 185 192 207 206 204 206 207 205 215 210 202 174 186 199 181 177 200 204 199 202 220 222 233 234 224 223 234 230 224 221 226 230 224 228 235 239 229 230 227 217 216 216 207 198 193 197 -9999 -9999 -9999 -9999 -9999 -9999 -9999 -9999 -9999 -9999 -9999 -9999 -9999 -9999 -9999 -9999 -9999 -9999 -9999 -9999 -9999 -9999 -9999 -9999 -9999 -9999 -9999 -9999 -9999 -9999 -9999 -9999 -9999 -9999 -9999 -9999 -9999 -9999 -9999 -9999 -9999 -9999 -9999 -9999 -9999 -9999 -9999 -9999 -9999 -9999 -9999 -9999 -9999 -9999 -9999 -9999 -9999 -9999 -9999 -9999 -9999 -9999 -9999 -9999 -9999 -9999 -9999 -9999 -9999 -9999 -9999 -9999 -9999 -9999 -9999 -9999 -9999 -9999 -9999 -9999 -9999 -9999 -9999 -9999 -9999 -9999 -9999 -9999 -9999 -9999 -9999 -9999 -9999 -9999 -9999 -9999 -9999 -9999 -9999 -9999 -9999 -9999 -9999 -9999 -9999 -9999 -9999 -9999 -9999 -9999 -9999 -9999 -9999 -9999 -9999 -9999 -9999 -9999 -9999 -9999 -9999 -9999 -9999 -9999 -9999 -9999 -9999 -9999 -9999 -9999 -9999 -9999 -9999 -9999 -9999 -9999 -9999 -9999 -9999 -9999 -9999 -9999 -9999 -9999 -9999 -9999 -9999 -9999 -9999 -9999 -9999 -9999 -9999 -9999 -9999 -9999 -9999 -9999 -9999 -9999 -9999 -9999 -9999 -9999 -9999 -9999 -9999 -9999 -9999 -9999 -9999 -9999 -9999 -9999 -9999 -9999 -9999 -9999 -9999 -9999 -9999 -9999 -9999 -9999 -9999 -9999 -9999 -9999 -9999 -9999 -9999 -9999 -9999 -9999 -9999 -9999 -9999 -9999 -9999 -9999 -9999 -9999 -9999 -9999 -9999 -9999 -9999 -9999 -9999 -9999 -9999 -9999 -9999 -9999 -9999 -9999 -9999 -9999 -9999 -9999 -9999 -9999 -9999 -9999 -9999 -9999 -9999 -9999 -9999 -9999 -9999 -9999 -9999 -9999 -9999 -9999 -9999 -9999 -9999 -9999 -9999 -9999 -9999 -9999 -9999 -9999 -9999 -9999 -9999 -9999 -9999 -9999 -9999 -9999 -9999 -9999 -9999 -9999 -9999 -9999 -9999 -9999 -9999 -9999 -9999 -9999 -9999 -9999 -9999 -9999 -9999 -9999 -9999 -9999 -9999 -9999 -9999 -9999 -9999 -9999 -9999 -9999 -9999 -9999 -9999
596 599 602 624 616 635 626 627 635 667 669 683 696 747 859 929 968 1081 1259 1387 1250 1176 998 1171 1408 1461 1455 1296 1212 1256 1329 1383 1162 1206 1332 1173 1079 1098 1031 860 795 725 689 666 736 859 779 842 945 1032 1128 1113 1132 1176 1105 977 938 899 912 868 875 884 858 852 877 876 901 956 911 862 966 972 913 835 901 856 872 858 903 988 1060 957 945 932 903 868 762 721 657 618 583 419 501 508 548 556 529 459 346 384 475 564 659 708 679 635 562 575 544 464 469 584 663 604 622 732 728 620 585 651 526 491 481 395 373 348 362 380 368 345 344 315 328 336 350 359 335 308 320 318 301 291 291 286 296 329 342 319 307 301 307 324 326 338 344 364 374 358 356 336 344 361 350 338 331 318 315 320 309 300 286 282 297 305 311 300 293 284 299 291 297 291 283 275 278 273 278 279 268 276 289 289 284 293 285 289 275 277 280 278 276 264 265 262 262 258 257 253 256 252 249 253 262 260 255 254 265 273 269 264 258 256 262 253 249 240 227 211 220 240 246 252 264 259 250 245 237 227 221 210 210 202 187 180 199 181 187 194 212 218 237 237 231 229 209 208 202 216 207 215 209 208 206 208 200 203 211 198 192 178 147 177 176 194 200 214 207 186 186 196 210 201 181 186 197 187 165 189 200 195 183 200 211 224 224 222 215 225 238 236 227 218 211 221 213 226 230 236 226 222 219 219 -9999 -9999 -9999 -9999 -9999 -9999 -9999 -9999 -9999 -9999 -9999 -9999 -9999 -9999 -9999 -9999 -9999 -9999 -9999 -9999 -9999 -9999 -9999 -9999 -9999 -9999 -9999 -9999 -9999 -9999 -9999 -9999 -9999 -9999 -9999 -9999 -9999 -9999 -9999 -9999 -9999 -9999 -9999 -9999 -9999 -9999 -9999 -9999 -9999 -9999 -9999 -9999 -9999 -9999 -9999 -9999 -9999 -9999 -9999 -9999 -9999 -9999 -9999 -9999 -9999 -9999 -9999 -9999 -9999 -9999 -9999 -9999 -9999 -9999 -9999 -9999 -9999 -9999 -9999 -9999 -9999 -9999 -9999 -9999 -9999 -9999 -9999 -9999 -9999 -9999 -9999 -9999 -9999 -9999 -9999 -9999 -9999 -9999 -9999 -9999 -9999 -9999 -9999 -9999 -9999 -9999 -9999 -9999 -9999 -9999 -9999 -9999 -9999 -9999 -9999 -9999 -9999 -9999 -9999 -9999 -9999 -9999 -9999 -9999 -9999 -9999 -9999 -9999 -9999 -9999 -9999 -9999 -9999 -9999 -9999 -9999 -9999 -9999 -9999 -9999 -9999 -9999 -9999 -9999 -9999 -9999 -9999 -9999 -9999 -9999 -9999 -9999 -9999 -9999 -9999 -9999 -9999 -9999 -9999 -9999 -9999 -9999 -9999 -9999 -9999 -9999 -9999 -9999 -9999 -9999 -9999 -9999 -9999 -9999 -9999 -9999 -9999 -9999 -9999 -9999 -9999 -9999 -9999 -9999 -9999 -9999 -9999 -9999 -9999 -9999 -9999 -9999 -9999 -9999 -9999 -9999 -9999 -9999 -9999 -9999 -9999 -9999 -9999 -9999 -9999 -9999 -9999 -9999 -9999 -9999 -9999 -9999 -9999 -9999 -9999 -9999 -9999 -9999 -9999 -9999 -9999 -9999 -9999 -9999 -9999 -9999 -9999 -9999 -9999 -9999 -9999 -9999 -9999 -9999 -9999 -9999 -9999 -9999 -9999 -9999 -9999 -9999 -9999 -9999 -9999 -9999 -9999 -9999 -9999 -9999 -9999 -9999 -9999 -9999 -9999 -9999 -9999 -9999 -9999 -9999 -9999 -9999 -9999 -9999 -9999 -9999 -9999 -9999 -9999 -9999 -9999 -9999 -9999 -9999 -9999 -9999 -9999 -9999 -9999 -9999 -9999 -9999 -9999 -9999 -9999 -9999 -9999 -9999 -9999 -9999 -9999
628 616 657 666 638 751 661 669 643 660 742 739 712 728 771 820 912 1040 1191 1328 1233 1046 945 1106 1223 1295 1399 1305 1297 1311 1393 1375 1130 977 1108 1010 926 980 1018 889 850 708 660 674 698 829 868 793 859 1002 1074 1098 1105 1161 1158 1006 881 826 811 819 839 852 809 813 812 863 908 873 845 814 865 937 899 826 812 784 845 854 851 908 996 954 897 914 785 759 702 699 627 542 495 376 467 542 616 455 371 374 358 344 367 566 686 611 593 583 542 487 430 371 379 533 585 583 683 608 576 504 540 513 416 402 389 372 374 376 350 344 375 366 318 311 331 330 317 328 300 285 292 297 288 292 311 299 319 351 335 320 313 318 328 325 335 348 348 358 361 360 347 328 336 337 336 337 325 316 303 299 299 296 291 280 283 298 309 300 290 279 287 275 275 283 283 279 269 274 290 293 283 271 268 278 280 271 271 266 270 263 275 283 285 275 270 263 265 267 268 256 253 260 260 248 244 249 253 246 255 261 258 259 259 245 241 239 253 254 242 222 214 231 233 255 254 240 232 233 234 224 213 201 187 188 195 186 177 177 198 202 210 224 240 248 230 220 211 196 192 202 194 211 205 195 196 197 196 181 189 191 183 173 150 154 171 192 186 200 189 178 192 207 215 196 175 174 180 184 167 189 186 185 191 200 209 224 216 211 224 236 239 237 233 226 208 205 208 217 225 -9999 -9999 -9999 -9999 -9999 -9999 -9999 -9999 -9999 -9999 -9999 -9999 -9999 -9999 -9999 -9999 -9999 -9999 -9999 -9999 -9999 -9999 -9999 -9999 -9999 -9999 -9999 -9999 -9999 -9999 -9999 -9999 -9999 -9999 -9999 -9999 -9999 -9999 -9999 -9999 -9999 -9999 -9999 -9999 -9999 -9999 -9999 -9999 -9999 -9999 -9999 -9999 -9999 -9999 -9999 -9999 -9999 -9999 -9999 -9999 -9999 -9999 -9999 -9999 -9999 -9999 -9999 -9999 -9999 -9999 -9999 -9999 -9999 -9999 -9999 -9999 -9999 -9999 -9999 -9999 -9999 -9999 -9999 -9999 -9999 -9999 -9999 -9999 -9999 -9999 -9999 -9999 -9999 -9999 -9999 -9999 -9999 -9999 -9999 -9999 -9999 -9999 -9999 -9999 -9999 -9999 -9999 -9999 -9999 -9999 -9999 -9999 -9999 -9999 -9999 -9999 -9999 -9999 -9999 -9999 -9999 -9999 -9999 -9999 -9999 -9999 -9999 -9999 -9999 -9999 -9999 -9999 -9999 -9999 -9999 -9999 -9999 -9999 -9999 -9999 -9999 -9999 -9999 -9999 -9999 -9999 -9999 -9999 -9999 -9999 -9999 -9999 -9999 -9999 -9999 -9999 -9999 -9999 -9999 -9999 -9999 -9999 -9999 -9999 -9999 -9999 -9999 -9999 -9999 -9999 -9999 -9999 -9999 -9999 -9999 -9999 -9999 -9999 -9999 -9999 -9999 -9999 -9999 -9999 -9999 -9999 -9999 -9999 -9999 -9999 -9999 -9999 -9999 -9999 -9999 -9999 -9999 -9999 -9999 -9999 -9999 -9999 -9999 -9999 -9999 -9999 -9999 -9999 -9999 -9999 -9999 -9999 -9999 -9999 -9999 -9999 -9999 -9999 -9999 -9999 -9999 -9999 -9999 -9999 -9999 -9999 -9999 -9999 -9999 -9999 -9999 -9999 -9999 -9999 -9999 -9999 -9999 -9999 -9999 -9999 -9999 -9999 -9999 -9999 -9999 -9999 -9999 -9999 -9999 -9999 -9999 -9999 -9999 -9999 -9999 -9999 -9999 -9999 -9999 -9999 -9999 -9999 -9999 -9999 -9999 -9999 -9999 -9999 -9999 -9999 -9999 -9999 -9999 -9999 -9999 -9999 -9999 -9999 -9999 -9999 -9999 -9999 -9999 -9999 -9999 -9999 -9999 -9999 -9999 -9999 -9999 -9999 -9999 -9999 -9999 -9999
706 665 815 754 659 726 726 793 688 700 708 766 846 890 792 820 919 1080 1286 1262 1088 1022 890 968 1097 1239 1418 1333 1350 1366 1458 1313 1103 933 868 922 829 911 897 881 856 755 671 661 807 880 829 863 999 1062 1129 1096 1087 1128 1193 1089 982 922 815 790 785 819 809 785 814 816 840 831 791 802 925 958 943 894 866 780 782 810 839 874 873 914 880 895 765 707 657 616 575 460 382 351 438 608 569 430 343 349 346 377 467 561 538 507 570 518 490 509 466 335 370 432 457 445 481 452 436 396 401 369 346 341 339 343 341 323 328 319 324 310 302 306 309 304 306 310 302 318 318 307 326 323 329 303 299 317 321 296 308 315 331 339 334 343 340 361 366 335 329 329 314 308 307 320 315 308 304 289 289 286 289 287 278 287 298 298 291 283 280 295 283 270 280 288 277 272 283 286 288 285 273 273 280 272 265 263 262 263 271 282 283 274 269 276 273 269 269 265 266 268 267 256 251 244 244 240 238 254 246 259 263 249 237 230 244 240 229 216 210 212 232 246 243 240 234 220 210 203 208 202 204 207 184 185 168 171 187 205 203 230 238 243 233 228 216 203 190 186 191 197 213 202 194 180 177 170 168 178 190 171 151 154 173 171 177 176 170 179 191 213 211 196 180 160 180 180 165 189 185 188 208 216 221 226 210 206 220 228 225 234 233 -9999 -9999 -9999 -9999 -9999 -9999 -9999 -9999 -9999 -9999 -9999 -9999 -9999 -9999 -9999 -9999 -9999 -9999 -9999 -9999 -9999 -9999 -9999 -9999 -9999 -9999 -9999 -9999 -9999 -9999 -9999 -9999 -9999 -9999 -9999 -9999 -9999 -9999 -9999 -9999 -9999 -9999 -9999 -9999 -9999 -9999 -9999 -9999 -9999 -9999 -9999 -9999 -9999 -9999 -9999 -9999 -9999 -9999 -9999 -9999 -9999 -9999 -9999 -9999 -9999 -9999 -9999 -9999 -9999 -9999 -9999 -9999 -9999 -9999 -9999 -9999 -9999 -9999 -9999 -9999 -9999 -9999 -9999 -9999 -9999 -9999 -9999 -9999 -9999 -9999 -9999 -9999 -9999 -9999 -9999 -9999 -9999 -9999 -9999 -9999 -9999 -9999 -9999 -9999 -9999 -9999 -9999 -9999 -9999 -9999 -9999 -9999 -9999 -9999 -9999 -9999 -9999 -9999 -9999 -9999 -9999 -9999 -9999 -9999 -9999 -9999 -9999 -9999 -9999 -9999 -9999 -9999 -9999 -9999 -9999 -9999 -9999 -9999 -9999 -9999 -9999 -9999 -9999 -9999 -9999 -9999 -9999 -9999 -9999 -9999 -9999 -9999 -9999 -9999 -9999 -9999 -9999 -9999 -9999 -9999 -9999 -9999 -9999 -9999 -9999 -9999 -9999 -9999 -9999 -9999 -9999 -9999 -9999 -9999 -9999 -9999 -9999 -9999 -9999 -9999 -9999 -9999 -9999 -9999 -9999 -9999 -9999 -9999 -9999 -9999 -9999 -9999 -9999 -9999 -9999 -9999 -9999 -9999 -9999 -9999 -9999 -9999 -9999 -9999 -9999 -9999 -9999 -9999 -9999 -9999 -9999 -9999 -9999 -9999 -9999 -9999 -9999 -9999 -9999 -9999 -9999 -9999 -9999 -9999 -9999 -9999 -9999 -9999 -9999 -9999 -9999 -9999 -9999 -9999 -9999 -9999 -9999 -9999 -9999 -9999 -9999 -9999 -9999 -9999 -9999 -9999 -9999 -9999 -9999 -9999 -9999 -9999 -9999 -9999 -9999 -9999 -9999 -9999 -9999 -9999 -9999 -9999 -9999 -9999 -9999 -9999 -9999 -9999 -9999 -9999 -9999 -9999 -9999 -9999 -9999 -9999 -9999 -9999 -9999 -9999 -9999 -9999 -9999 -9999 -9999 -9999 -9999 -9999 -9999 -9999 -9999 -9999 -9999 -9999 -9999 -9999 -9999 -9999 -9999 -9999 -9999 -9999
768 714 700 748 742 814 848 900 783 819 703 742 840 1031 963 970 1058 1180 1191 1163 1031 909 835 977 1204 1288 1445 1216 1233 1269 1366 1164 1021 929 758 780 768 868 928 868 828 759 676 664 778 716 728 867 970 1047 1074 1085 1122 1101 1116 980 902 885 895 807 760 777 788 776 813 774 800 768 783 844 911 913 966 970 892 830 735 739 881 893 848 881 866 861 742 645 599 549 498 519 381 343 431 585 463 345 342 384 418 441 396 460 405 407 435 403 410 394 354 308 370 485 454 400 374 360 357 336 337 349 335 327 335 323 318 342 335 344 377 341 302 320 332 320 331 348 325 354 359 342 324 309 308 306 285 311 307 297 314 316 334 345 350 344 345 331 332 319 315 318 319 305 300 302 318 306 311 316 309 296 282 290 289 278 286 290 286 293 297 294 288 272 277 283 281 265 275 284 278 270 270 261 270 271 272 270 261 253 265 272 274 278 276 267 275 278 282 275 266 271 271 262 259 258 251 245 235 232 245 261 258 247 238 233 228 224 218 225 212 223 230 226 223 223 228 230 223 218 224 215 221 214 195 184 170 172 177 191 212 223 226 227 213 214 205 194 191 180 177 188 208 204 197 193 188 183 182 164 182 179 148 152 157 173 167 162 177 183 194 206 191 187 175 162 188 173 173 176 183 205 214 226 226 216 200 -9999 -9999 -9999 -9999 -9999 -9999 -9999 -9999 -9999 -9999 -9999 -9999 -9999 -9999 -9999 -9999 -9999 -9999 -9999 -9999 -9999 -9999 -9999 -9999 -9999 -9999 -9999 -9999 -9999 -9999 -9999 -9999 -9999 -9999 -9999 -9999 -9999 -9999 -9999 -9999 -9999 -9999 -9999 -9999 -9999 -9999 -9999 -9999 -9999 -9999 -9999 -9999 -9999 -9999 -9999 -9999 -9999 -9999 -9999 -9999 -9999 -9999 -9999 -9999 -9999 -9999 -9999 -9999 -9999 -9999 -9999 -9999 -9999 -9999 -9999 -9999 -9999 -9999 -9999 -9999 -9999 -9999 -9999 -9999 -9999 -9999 -9999 -9999 -9999 -9999 -9999 -9999 -9999 -9999 -9999 -9999 -9999 -9999 -9999 -9999 -9999 -9999 -9999 -9999 -9999 -9999 -9999 -9999 -9999 -9999 -9999 -9999 -9999 -9999 -9999 -9999 -9999 -9999 -9999 -9999 -9999 -9999 -9999 -9999 -9999 -9999 -9999 -9999 -9999 -9999 -9999 -9999 -9999 -9999 -9999 -9999 -9999 -9999 -9999 -9999 -9999 -9999 -9999 -9999 -9999 -9999 -9999 -9999 -9999 -9999 -9999 -9999 -9999 -9999 -9999 -9999 -9999 -9999 -9999 -9999 -9999 -9999 -9999 -9999 -9999 -9999 -9999 -9999 -9999 -9999 -9999 -9999 -9999 -9999 -9999 -9999 -9999 -9999 -9999 -9999 -9999 -9999 -9999 -9999 -9999 -9999 -9999 -9999 -9999 -9999 -9999 -9999 -9999 -9999 -9999 -9999 -9999 -9999 -9999 -9999 -9999 -9999 -9999 -9999 -9999 -9999 -9999 -9999 -9999 -9999 -9999 -9999 -9999 -9999 -9999 -9999 -9999 -9999 -9999 -9999 -9999 -9999 -9999 -9999 -9999 -9999 -9999 -9999 -9999 -9999 -9999 -9999 -9999 -9999 -9999 -9999 -9999 -9999 -9999 -9999 -9999 -9999 -9999 -9999 -9999 -9999 -9999 -9999 -9999 -9999 -9999 -9999 -9999 -9999 -9999 -9999 -9999 -9999 -9999 -9999 -9999 -9999 -9999 -9999 -9999 -9999 -9999 -9999 -9999 -9999 -9999 -9999 -9999 -9999 -9999 -9999 -9999 -9999 -9999 -9999 -9999 -9999 -9999 -9999 -9999 -9999 -9999 -9999 -9999 -9999 -9999 -9999 -9999 -9999 -9999 -9999 -9999 -9999 -9999 -9999 -9999 -9999 -9999 -9999 -9999 -9999 -9999 -9999
695 639 624 643 675 806 940 950 961 884 831 852 969 1053 1244 1131 1082 1086 1052 1064 968 886 825 983 1061 1155 1316 1088 1026 1067 1179 1183 973 858 807 749 762 859 883 830 788 719 679 669 704 664 743 904 955 1002 974 1021 1136 1054 996 901 847 805 848 799 811 759 731 780 769 749 757 737 771 866 842 899 903 834 874 842 723 727 868 881 813 836 844 804 719 602 550 525 467 431 369 360 349 403 383 347 342 344 349 425 384 332 371 396 366 324 318 314 326 368 474 430 374 354 372 395 382 358 363 376 378 360 374 378 380 379 374 358 337 322 317 320 333 352 375 356 351 363 347 327 310 312 310 298 292 314 292 301 337 322 339 345 344 342 327 322 312 313 309 308 311 317 311 304 300 297 310 318 316 305 295 289 285 271 269 266 271 278 288 284 287 277 270 274 280 270 283 295 294 276 270 264 261 262 263 273 261 247 254 268 267 273 267 265 271 281 281 276 274 274 276 270 271 267 264 262 246 228 238 249 253 255 260 253 246 239 241 232 220 205 210 209 210 213 227 238 236 224 219 224 213 217 210 203 191 187 172 188 207 209 218 216 210 197 197 201 188 178 166 187 192 190 197 195 184 175 170 160 180 178 163 142 147 159 157 173 189 203 203 202 187 176 181 162 183 171 161 175 193 226 -9999 -9999 -9999 -9999 -9999 -9999 -9999 -9999 -9999 -9999 -9999 -9999 -9999 -9999 -9999 -9999 -9999 -9999 -9999 -9999 -9999 -9999 -9999 -9999 -9999 -9999 -9999 -9999 -9999 -9999 -9999 -9999 -9999 -9999 -9999 -9999 -9999 -9999 -9999 -9999 -9999 -9999 -9999 -9999 -9999 -9999 -9999 -9999 -9999 -9999 -9999 -9999 -9999 -9999 -9999 -9999 -9999 -9999 -9999 -9999 -9999 -9999 -9999 -9999 -9999 -9999 -9999 -9999 -9999 -9999 -9999 -9999 -9999 -9999 -9999 -9999 -9999 -9999 -9999 -9999 -9999 -9999 -9999 -9999 -9999 -9999 -9999 -9999 -9999 -9999 -9999 -9999 -9999 -9999 -9999 -9999 -9999 -9999 -9999 -9999 -9999 -9999 -9999 -9999 -9999 -9999 -9999 -9999 -9999 -9999 -9999 -9999 -9999 -9999 -9999 -9999 -9999 -9999 -9999 -9999 -9999 -9999 -9999 -9999 -9999 -9999 -9999 -9999 -9999 -9999 -9999 -9999 -9999 -9999 -9999 -9999 -9999 -9999 -9999 -9999 -9999 -9999 -9999 -9999 -9999 -9999 -9999 -9999 -9999 -9999 -9999 -9999 -9999 -9999 -9999 -9999 -9999 -9999 -9999 -9999 -9999 -9999 -9999 -9999 -9999 -9999 -9999 -9999 -9999 -9999 -9999 -9999 -9999 -9999 -9999 -9999 -9999 -9999 -9999 -9999 -9999 -9999 -9999 -9999 -9999 -9999 -9999 -9999 -9999 -9999 -9999 -9999 -9999 -9999 -9999 -9999 -9999 -9999 -9999 -9999 -9999 -9999 -9999 -9999 -9999 -9999 -9999 -9999 -9999 -9999 -9999 -9999 -9999 -9999 -9999 -9999 -9999 -9999 -9999 -9999 -9999 -9999 -9999 -9999 -9999 -9999 -9999 -9999 -9999 -9999 -9999 -9999 -9999 -9999 -9999 -9999 -9999 -9999 -9999 -9999 -9999 -9999 -9999 -9999 -9999 -9999 -9999 -9999 -9999 -9999 -9999 -9999 -9999 -9999 -9999 -9999 -9999 -9999 -9999 -9999 -9999 -9999 -9999 -9999 -9999 -9999 -9999 -9999 -9999 -9999 -9999 -9999 -9999 -9999 -9999 -9999 -9999 -9999 -9999 -9999 -9999 -9999 -9999 -9999 -9999 -9999 -9999 -9999 -9999 -9999 -9999 -9999 -9999 -9999 -9999 -9999 -9999 -9999 -9999 -9999 -9999 -9999 -9999 -9999 -9999 -9999 -9999 -9999 -9999 -9999 -9999 -9999 -9999
607 626 614 669 734 829 992 1105 1132 1100 1108 1060 1120 1166 1113 1023 911 1026 943 1017 948 852 783 987 949 1090 1186 1028 928 1017 1094 1145 1009 848 793 777 723 721 742 731 737 722 686 648 661 707 771 836 965 1028 1002 1058 1123 1064 958 887 849 753 733 773 737 737 708 733 706 730 730 725 758 869 858 807 788 777 728 708 757 803 822 868 884 851 732 718 705 597 570 511 442 408 384 360 351 342 342 342 342 342 342 372 337 331 334 336 346 325 298 418 486 443 413 357 339 349 377 360 381 412 375 425 495 475 456 390 402 410 363 358 340 345 348 367 371 366 376 362 348 336 341 338 325 313 303 293 296 301 302 322 340 332 348 340 333 338 333 330 323 329 324 321 313 310 312 310 318 308 297 299 303 302 296 288 289 282 281 277 271 268 272 266 271 274 271 274 273 268 272 275 281 285 285 276 273 263 248 268 271 264 250 269 266 270 268 256 272 273 276 266 270 267 270 269 270 264 256 251 244 233 227 233 247 255 250 244 249 244 236 226 220 216 202 186 195 211 219 230 223 224 213 207 201 195 194 182 181 187 174 175 199 193 204 208 195 183 180 193 201 190 163 177 175 182 176 184 190 178 162 154 167 178 163 139 144 154 170 184 195 203 201 202 183 163 167 160 -9999 -9999 -9999 -9999 -9999 -9999 -9999 -9999 -9999 -9999 -9999 -9999 -9999 -9999 -9999 -9999 -9999 -9999 -9999 -9999 -9999 -9999 -9999 -9999 -9999 -9999 -9999 -9999 -9999 -9999 -9999 -9999 -9999 -9999 -9999 -9999 -9999 -9999 -9999 -9999 -9999 -9999 -9999 -9999 -9999 -9999 -9999 -9999 -9999 -9999 -9999 -9999 -9999 -9999 -9999 -9999 -9999 -9999 -9999 -9999 -9999 -9999 -9999 -9999 -9999 -9999 -9999 -9999 -9999 -9999 -9999 -9999 -9999 -9999 -9999 -9999 -9999 -9999 -9999 -9999 -9999 -9999 -9999 -9999 -9999 -9999 -9999 -9999 -9999 -9999 -9999 -9999 -9999 -9999 -9999 -9999 -9999 -9999 -9999 -9999 -9999 -9999 -9999 -9999 -9999 -9999 -9999 -9999 -9999 -9999 -9999 -9999 -9999 -9999 -9999 -9999 -9999 -9999 -9999 -9999 -9999 -9999 -9999 -9999 -9999 -9999 -9999 -9999 -9999 -9999 -9999 -9999 -9999 -9999 -9999 -9999 -9999 -9999 -9999 -9999 -9999 -9999 -9999 -9999 -9999 -9999 -9999 -9999 -9999 -9999 -9999 -9999 -9999 -9999 -9999 -9999 -9999 -9999 -9999 -9999 -9999 -9999 -9999 -9999 -9999 -9999 -9999 -9999 -9999 -9999 -9999 -9999 -9999 -9999 -9999 -9999 -9999 -9999 -9999 -9999 -9999 -9999 -9999 -9999 -9999 -9999 -9999 -9999 -9999 -9999 -9999 -9999 -9999 -9999 -9999 -9999 -9999 -9999 -9999 -9999 -9999 -9999 -9999 -9999 -9999 -9999 -9999 -9999 -9999 -9999 -9999 -9999 -9999 -9999 -9999 -9999 -9999 -9999 -9999 -9999 -9999 -9999 -9999 -9999 -9999 -9999 -9999 -9999 -9999 -9999 -9999 -9999 -9999 -9999 -9999 -9999 -9999 -9999 -9999 -9999 -9999 -9999 -9999 -9999 -9999 -9999 -9999 -9999 -9999 -9999 -9999 -9999 -9999 -9999 -9999 -9999 -9999 -9999 -9999 -9999 -9999 -9999 -9999 -9999 -9999 -9999 -9999 -9999 -9999 -9999 -9999 -9999 -9999 -9999 -9999 -9999 -9999 -9999 -9999 -9999 -9999 -9999 -9999 -9999 -9999 -9999 -9999 -9999 -9999 -9999 -9999 -9999 -9999 -9999 -9999 -9999 -9999 -9999 -9999 -9999 -9999 -9999 -9999 -9999 -9999 -9999 -9999 -9999 -9999 -9999 -9999 -9999 -9999 -9999 -9999 -9999 -9999 -9999 -9999
622 640 632 690 807 1024 1132 968 1024 1071 1064 995 965 1049 895 895 834 1001 932 898 978 871 766 862 892 975 1077 945 917 963 913 1005 949 857 864 843 740 789 726 719 707 673 671 655 651 678 730 927 992 1140 1118 1206 1254 1201 1060 933 834 777 741 714 696 692 683 658 766 770 749 762 838 841 852 808 753 803 689 708 773 858 869 871 851 717 606 650 616 570 526 471 454 483 472 467 374 374 346 342 342 342 342 361 309 289 309 322 307 310 315 376 402 365 347 325 342 408 454 441 480 384 357 395 411 418 471 399 479 417 340 344 372 350 386 371 379 377 354 332 330 325 310 318 310 303 289 300 282 299 306 337 334 320 331 344 329 331 328 336 329 327 324 324 322 312 304 301 299 292 295 291 308 313 309 304 295 292 293 289 295 295 287 291 283 265 267 259 274 273 264 265 280 284 283 279 268 259 257 254 248 259 260 248 263 260 270 255 264 270 266 258 259 258 262 262 273 267 256 243 234 236 233 223 234 246 247 233 229 235 237 236 236 223 200 200 193 195 212 209 220 231 217 202 208 206 207 199 183 178 178 170 189 180 192 192 187 185 174 182 196 191 178 160 159 163 167 181 187 188 168 153 157 169 156 137 168 165 176 182 193 192 188 -9999 -9999 -9999 -9999 -9999 -9999 -9999 -9999 -9999 -9999 -9999 -9999 -9999 -9999 -9999 -9999 -9999 -9999 -9999 -9999 -9999 -9999 -9999 -9999 -9999 -9999 -9999 -9999 -9999 -9999 -9999 -9999 -9999 -9999 -9999 -9999 -9999 -9999 -9999 -9999 -9999 -9999 -9999 -9999 -9999 -9999 -9999 -9999 -9999 -9999 -9999 -9999 -9999 -9999 -9999 -9999 -9999 -9999 -9999 -9999 -9999 -9999 -9999 -9999 -9999 -9999 -9999 -9999 -9999 -9999 -9999 -9999 -9999 -9999 -9999 -9999 -9999 -9999 -9999 -9999 -9999 -9999 -9999 -9999 -9999 -9999 -9999 -9999 -9999 -9999 -9999 -9999 -9999 -9999 -9999 -9999 -9999 -9999 -9999 -9999 -9999 -9999 -9999 -9999 -9999 -9999 -9999 -9999 -9999 -9999 -9999 -9999 -9999 -9999 -9999 -9999 -9999 -9999 -9999 -9999 -9999 -9999 -9999 -9999 -9999 -9999 -9999 -9999 -9999 -9999 -9999 -9999 -9999 -9999 -9999 -9999 -9999 -9999 -9999 -9999 -9999 -9999 -9999 -9999 -9999 -9999 -9999 -9999 -9999 -9999 -9999 -9999 -9999 -9999 -9999 -9999 -9999 -9999 -9999 -9999 -9999 -9999 -9999 -9999 -9999 -9999 -9999 -9999 -9999 -9999 -9999 -9999 -9999 -9999 -9999 -9999 -9999 -9999 -9999 -9999 -9999 -9999 -9999 -9999 -9999 -9999 -9999 -9999 -9999 -9999 -9999 -9999 -9999 -9999 -9999 -9999 -9999 -9999 -9999 -9999 -9999 -9999 -9999 -9999 -9999 -9999 -9999 -9999 -9999 -9999 -9999 -9999 -9999 -9999 -9999 -9999 -9999 -9999 -9999 -9999 -9999 -9999 -9999 -9999 -9999 -9999 -9999 -9999 -9999 -9999 -9999 -9999 -9999 -9999 -9999 -9999 -9999 -9999 -9999 -9999 -9999 -9999 -9999 -9999 -9999 -9999 -9999 -9999 -9999 -9999 -9999 -9999 -9999 -9999 -9999 -9999 -9999 -9999 -9999 -9999 -9999 -9999 -9999 -9999 -9999 -9999 -9999 -9999 -9999 -9999 -9999 -9999 -9999 -9999 -9999 -9999 -9999 -9999 -9999 -9999 -9999 -9999 -9999 -9999 -9999 -9999 -9999 -9999 -9999 -9999 -9999 -9999 -9999 -9999 -9999 -9999 -9999 -9999 -9999 -9999 -9999 -9999 -9999 -9999 -9999 -9999 -9999 -9999 -9999 -9999 -9999 -9999 -9999 -9999 -9999 -9999 -9999 -9999 -9999 -9999 -9999 -9999 -9999 -9999
697 836 705 737 841 1090 1113 836 800 870 910 818 860 843 798 787 799 968 931 870 859 821 790 834 926 1013 1020 879 904 829 816 958 1061 992 989 1011 906 955 904 806 711 674 655 651 662 743 833 940 1002 1023 1059 1180 1305 1207 1119 1065 863 886 820 796 768 721 689 611 719 708 722 731 799 793 746 731 758 748 678 760 787 810 840 838 765 565 493 518 570 531 483 469 497 499 525 518 457 442 376 342 350 342 338 329 278 325 316 297 282 328 309 315 342 327 318 382 404 415 436 405 373 367 357 362 356 361 406 396 342 341 325 330 364 368 390 397 371 381 363 327 327 329 317 299 318 317 306 313 312 292 317 335 335 335 323 336 337 318 323 331 342 349 337 338 333 331 322 315 308 307 299 291 297 305 303 312 310 301 306 298 307 304 293 288 276 273 273 259 254 274 276 268 258 264 271 280 283 278 274 264 253 244 243 244 252 256 252 250 265 264 267 261 252 255 260 256 262 259 254 254 246 228 228 222 222 237 233 227 219 236 237 232 229 220 226 221 211 195 188 199 224 229 223 215 213 218 216 208 193 196 194 174 170 172 178 175 184 169 178 188 183 190 180 180 177 164 151 159 165 173 178 167 147 151 139 149 163 178 -9999 -9999 -9999 -9999 -9999 -9999 -9999 -9999 -9999 -9999 -9999 -9999 -9999 -9999 -9999 -9999 -9999 -9999 -9999 -9999 -9999 -9999 -9999 -9999 -9999 -9999 -9999 -9999 -9999 -9999 -9999 -9999 -9999 -9999 -9999 -9999 -9999 -9999 -9999 -9999 -9999 -9999 -9999 -9999 -9999 -9999 -9999 -9999 -9999 -9999 -9999 -9999 -9999 -9999 -9999 -9999 -9999 -9999 -9999 -9999 -9999 -9999 -9999 -9999 -9999 -9999 -9999 -9999 -9999 -9999 -9999 -9999 -9999 -9999 -9999 -9999 -9999 -9999 -9999 -9999 -9999 -9999 -9999 -9999 -9999 -9999 -9999 -9999 -9999 -9999 -9999 -9999 -9999 -9999 -9999 -9999 -9999 -9999 -9999 -9999 -9999 -9999 -9999 -9999 -9999 -9999 -9999 -9999 -9999 -9999 -9999 -9999 -9999 -9999 -9999 -9999 -9999 -9999 -9999 -9999 -9999 -9999 -9999 -9999 -9999 -9999 -9999 -9999 -9999 -9999 -9999 -9999 -9999 -9999 -9999 -9999 -9999 -9999 -9999 -9999 -9999 -9999 -9999 -9999 -9999 -9999 -9999 -9999 -9999 -9999 -9999 -9999 -9999 -9999 -9999 -9999 -9999 -9999 -9999 -9999 -9999 -9999 -9999 -9999 -9999 -9999 -9999 -9999 -9999 -9999 -9999 -9999 -9999 -9999 -9999 -9999 -9999 -9999 -9999 -9999 -9999 -9999 -9999 -9999 -9999 -9999 -9999 -9999 -9999 -9999 -9999 -9999 -9999 -9999 -9999 -9999 -9999 -9999 -9999 -9999 -9999 -9999 -9999 -9999 -9999 -9999 -9999 -9999 -9999 -9999 -9999 -9999 -9999 -9999 -9999 -9999 -9999 -9999 -9999 -9999 -9999 -9999 -9999 -9999 -9999 -9999 -9999 -9999 -9999 -9999 -9999 -9999 -9999 -9999 -9999 -9999 -9999 -9999 -9999 -9999 -9999 -9999 -9999 -9999 -9999 -9999 -9999 -9999 -9999 -9999 -9999 -9999 -9999 -9999 -9999 -9999 -9999 -9999 -9999 -9999 -9999 -9999 -9999 -9999 -9999 -9999 -9999 -9999 -9999 -9999 -9999 -9999 -9999 -9999 -9999 -9999 -9999 -9999 -9999 -9999 -9999 -9999 -9999 -9999 -9999 -9999 -9999 -9999 -9999 -9999 -9999 -9999 -9999 -9999 -9999 -9999 -9999 -9999 -9999 -9999 -9999 -9999 -9999 -9999 -9999 -9999 -9999 -9999 -9999 -9999 -9999 -9999 -9999 -9999 -9999 -9999 -9999 -9999 -9999 -9999 -9999 -9999 -9999 -9999 -9999 -9999 -9999 -9999 -9999
-9999 886 774 841 855 940 930 787 704 792 841 810 728 695 706 728 811 940 944 923 830 828 759 866 927 908 864 866 820 773 794 862 941 981 943 1020 1055 922 819 708 679 670 658 661 709 813 852 886 965 1003 1102 1153 1082 1060 991 971 886 894 813 800 763 725 637 583 619 654 698 701 686 644 666 716 800 696 656 691 771 765 768 759 731 593 475 467 463 402 445 413 386 419 485 463 426 392 360 346 361 339 298 256 268 308 280 261 296 319 299 312 335 306 394 368 385 424 397 361 371 368 333 356 357 383 357 360 322 315 317 335 358 360 386 407 413 393 358 340 350 342 326 322 324 309 308 303 295 289 290 315 318 332 314 327 337 328 317 328 337 358 370 370 395 366 342 335 331 315 313 305 288 290 299 303 311 315 317 317 321 321 315 291 292 278 274 271 265 257 249 256 265 269 258 275 272 276 276 273 262 259 248 249 237 249 248 245 254 250 260 261 261 254 247 244 250 247 247 248 242 240 244 241 228 219 215 214 216 225 227 232 232 224 224 211 205 202 188 197 226 223 223 223 213 214 224 216 206 212 207 191 175 161 163 161 163 162 172 168 178 172 171 177 188 176 155 147 146 152 169 172 165 -9999 -9999 -9999 -9999 -9999 -9999 -9999 -9999 -9999 -9999 -9999 -9999 -9999 -9999 -9999 -9999 -9999 -9999 -9999 -9999 -9999 -9999 -9999 -9999 -9999 -9999 -9999 -9999 -9999 -9999 -9999 -9999 -9999 -9999 -9999 -9999 -9999 -9999 -9999 -9999 -9999 -9999 -9999 -9999 -9999 -9999 -9999 -9999 -9999 -9999 -9999 -9999 -9999 -9999 -9999 -9999 -9999 -9999 -9999 -9999 -9999 -9999 -9999 -9999 -9999 -9999 -9999 -9999 -9999 -9999 -9999 -9999 -9999 -9999 -9999 -9999 -9999 -9999 -9999 -9999 -9999 -9999 -9999 -9999 -9999 -9999 -9999 -9999 -9999 -9999 -9999 -9999 -9999 -9999 -9999 -9999 -9999 -9999 -9999 -9999 -9999 -9999 -9999 -9999 -9999 -9999 -9999 -9999 -9999 -9999 -9999 -9999 -9999 -9999 -9999 -9999 -9999 -9999 -9999 -9999 -9999 -9999 -9999 -9999 -9999 -9999 -9999 -9999 -9999 -9999 -9999 -9999 -9999 -9999 -9999 -9999 -9999 -9999 -9999 -9999 -9999 -9999 -9999 -9999 -9999 -9999 -9999 -9999 -9999 -9999 -9999 -9999 -9999 -9999 -9999 -9999 -9999 -9999 -9999 -9999 -9999 -9999 -9999 -9999 -9999 -9999 -9999 -9999 -9999 -9999 -9999 -9999 -9999 -9999 -9999 -9999 -9999 -9999 -9999 -9999 -9999 -9999 -9999 -9999 -9999 -9999 -9999 -9999 -9999 -9999 -9999 -9999 -9999 -9999 -9999 -9999 -9999 -9999 -9999 -9999 -9999 -9999 -9999 -9999 -9999 -9999 -9999 -9999 -9999 -9999 -9999 -9999 -9999 -9999 -9999 -9999 -9999 -9999 -9999 -9999 -9999 -9999 -9999 -9999 -9999 -9999 -9999 -9999 -9999 -9999 -9999 -9999 -9999 -9999 -9999 -9999 -9999 -9999 -9999 -9999 -9999 -9999 -9999 -9999 -9999 -9999 -9999 -9999 -9999 -9999 -9999 -9999 -9999 -9999 -9999 -9999 -9999 -9999 -9999 -9999 -9999 -9999 -9999 -9999 -9999 -9999 -9999 -9999 -9999 -9999 -9999 -9999 -9999 -9999 -9999 -9999 -9999 -9999 -9999 -9999 -9999 -9999 -9999 -9999 -9999 -9999 -9999 -9999 -9999 -9999 -9999 -9999 -9999 -9999 -9999 -9999 -9999 -9999 -9999 -9999 -9999 -9999 -9999 -9999 -9999 -9999 -9999 -9999 -9999 -9999 -9999 -9999 -9999 -9999 -9999 -9999 -9999 -9999 -9999 -9999 -9999 -9999 -9999 -9999 -9999 -9999 -9999 -9999 -9999 -9999 -9999 -9999 -9999 -9999
-9999 685 696 708 714 868 871 749 678 709 868 737 688 712 793 837 880 940 945 942 938 894 785 810 859 808 789 812 748 682 774 811 846 954 875 953 909 840 797 671 675 666 665 671 706 847 939 936 967 999 1041 1040 951 862 948 879 838 818 806 783 760 684 687 649 583 549 573 587 607 682 685 646 742 656 653 650 702 710 716 624 544 492 462 434 394 363 386 366 343 379 401 376 424 365 341 326 318 297 265 265 294 281 258 283 296 305 326 370 322 313 401 440 442 377 363 402 347 337 338 360 363 335 337 333 317 304 321 384 351 363 399 409 404 377 345 344 340 327 324 313 309 303 316 312 288 294 287 325 312 313 318 335 325 315 327 334 343 398 454 493 494 465 421 372 346 324 312 308 301 295 288 298 317 308 311 324 331 335 330 310 306 299 296 289 279 265 250 257 254 257 263 254 256 260 269 264 272 260 250 251 242 230 238 241 239 258 252 257 266 253 255 243 237 231 235 234 231 244 236 241 233 230 222 229 214 207 210 217 213 205 204 212 220 199 186 195 218 214 219 209 193 205 221 218 214 213 197 188 190 180 178 166 164 159 158 158 153 161 167 182 180 170 170 -9999 -9999 -9999 -9999 -9999 -9999 -9999 -9999 -9999 -9999 -9999 -9999 -9999 -9999 -9999 -9999 -9999 -9999 -9999 -9999 -9999 -9999 -9999 -9999 -9999 -9999 -9999 -9999 -9999 -9999 -9999 -9999 -9999 -9999 -9999 -9999 -9999 -9999 -9999 -9999 -9999 -9999 -9999 -9999 -9999 -9999 -9999 -9999 -9999 -9999 -9999 -9999 -9999 -9999 -9999 -9999 -9999 -9999 -9999 -9999 -9999 -9999 -9999 -9999 -9999 -9999 -9999 -9999 -9999 -9999 -9999 -9999 -9999 -9999 -9999 -9999 -9999 -9999 -9999 -9999 -9999 -9999 -9999 -9999 -9999 -9999 -9999 -9999 -9999 -9999 -9999 -9999 -9999 -9999 -9999 -9999 -9999 -9999 -9999 -9999 -9999 -9999 -9999 -9999 -9999 -9999 -9999 -9999 -9999 -9999 -9999 -9999 -9999 -9999 -9999 -9999 -9999 -9999 -9999 -9999 -9999 -9999 -9999 -9999 -9999 -9999 -9999 -9999 -9999 -9999 -9999 -9999 -9999 -9999 -9999 -9999 -9999 -9999 -9999 -9999 -9999 -9999 -9999 -9999 -9999 -9999 -9999 -9999 -9999 -9999 -9999 -9999 -9999 -9999 -9999 -9999 -9999 -9999 -9999 -9999 -9999 -9999 -9999 -9999 -9999 -9999 -9999 -9999 -9999 -9999 -9999 -9999 -9999 -9999 -9999 -9999 -9999 -9999 -9999 -9999 -9999 -9999 -9999 -9999 -9999 -9999 -9999 -9999 -9999 -9999 -9999 -9999 -9999 -9999 -9999 -9999 -9999 -9999 -9999 -9999 -9999 -9999 -9999 -9999 -9999 -9999 -9999 -9999 -9999 -9999 -9999 -9999 -9999 -9999 -9999 -9999 -9999 -9999 -9999 -9999 -9999 -9999 -9999 -9999 -9999 -9999 -9999 -9999 -9999 -9999 -9999 -9999 -9999 -9999 -9999 -9999 -9999 -9999 -9999 -9999 -9999 -9999 -9999 -9999 -9999 -9999 -9999 -9999 -9999 -9999 -9999 -9999 -9999 -9999 -9999 -9999 -9999 -9999 -9999 -9999 -9999 -9999 -9999 -9999 -9999 -9999 -9999 -9999 -9999 -9999 -9999 -9999 -9999 -9999 -9999 -9999 -9999 -9999 -9999 -9999 -9999 -9999 -9999 -9999 -9999 -9999 -9999 -9999 -9999 -9999 -9999 -9999 -9999 -9999 -9999 -9999 -9999 -9999 -9999 -9999 -9999 -9999 -9999 -9999 -9999 -9999 -9999 -9999 -9999 -9999 -9999 -9999 -9999 -9999 -9999 -9999 -9999 -9999 -9999 -9999 -9999 -9999 -9999 -9999 -9999 -9999 -9999 -9999 -9999 -9999 -9999 -9999 -9999 -9999 -9999 -9999 -9999 -9999 -9999 -9999
-9999 631 660 674 674 780 776 694 678 704 737 666 659 742 788 884 1030 1016 949 842 923 843 794 713 781 855 743 742 700 653 703 740 757 800 888 771 711 679 667 672 684 694 665 739 847 937 1078 1063 1000 1018 953 813 835 817 824 877 740 747 711 733 720 695 681 692 625 542 531 556 604 703 593 642 738 592 597 623 677 697 685 532 402 417 429 372 361 350 359 347 326 347 353 348 456 410 349 325 310 310 293 256 252 260 287 318 328 334 371 450 338 312 346 459 408 349 325 350 340 331 333 359 360 352 329 346 308 335 367 367 348 353 375 446 417 384 351 344 327 316 327 324 324 334 328 315 303 307 280 290 299 299 314 330 317 323 335 333 336 347 383 460 519 433 395 350 333 327 324 319 314 313 287 282 297 297 296 308 311 311 314 306 302 307 298 286 279 275 275 269 263 246 256 262 262 257 249 253 258 255 255 243 246 245 228 232 241 247 247 259 267 259 257 248 238 239 226 220 223 232 226 239 240 235 239 238 225 217 214 212 213 216 223 233 231 216 205 185 193 203 195 192 177 191 217 200 207 196 197 201 197 200 187 183 181 180 178 165 172 159 -9999 -9999 -9999 -9999 -9999 -9999 -9999 -9999 -9999 -9999 -9999 -9999 -9999 -9999 -9999 -9999 -9999 -9999 -9999 -9999 -9999 -9999 -9999 -9999 -9999 -9999 -9999 -9999 -9999 -9999 -9999 -9999 -9999 -9999 -9999 -9999 -9999 -9999 -9999 -9999 -9999 -9999 -9999 -9999 -9999 -9999 -9999 -9999 -9999 -9999 -9999 -9999 -9999 -9999 -9999 -9999 -9999 -9999 -9999 -9999 -9999 -9999 -9999 -9999 -9999 -9999 -9999 -9999 -9999 -9999 -9999 -9999 -9999 -9999 -9999 -9999 -9999 -9999 -9999 -9999 -9999 -9999 -9999 -9999 -9999 -9999 -9999 -9999 -9999 -9999 -9999 -9999 -9999 -9999 -9999 -9999 -9999 -9999 -9999 -9999 -9999 -9999 -9999 -9999 -9999 -9999 -9999 -9999 -9999 -9999 -9999 -9999 -9999 -9999 -9999 -9999 -9999 -9999 -9999 -9999 -9999 -9999 -9999 -9999 -9999 -9999 -9999 -9999 -9999 -9999 -9999 -9999 -9999 -9999 -9999 -9999 -9999 -9999 -9999 -9999 -9999 -9999 -9999 -9999 -9999 -9999 -9999 -9999 -9999 -9999 -9999 -9999 -9999 -9999 -9999 -9999 -9999 -9999 -9999 -9999 -9999 -9999 -9999 -9999 -9999 -9999 -9999 -9999 -9999 -9999 -9999 -9999 -9999 -9999 -9999 -9999 -9999 -9999 -9999 -9999 -9999 -9999 -9999 -9999 -9999 -9999 -9999 -9999 -9999 -9999 -9999 -9999 -9999 -9999 -9999 -9999 -9999 -9999 -9999 -9999 -9999 -9999 -9999 -9999 -9999 -9999 -9999 -9999 -9999 -9999 -9999 -9999 -9999 -9999 -9999 -9999 -9999 -9999 -9999 -9999 -9999 -9999 -9999 -9999 -9999 -9999 -9999 -9999 -9999 -9999 -9999 -9999 -9999 -9999 -9999 -9999 -9999 -9999 -9999 -9999 -9999 -9999 -9999 -9999 -9999 -9999 -9999 -9999 -9999 -9999 -9999 -9999 -9999 -9999 -9999 -9999 -9999 -9999 -9999 -9999 -9999 -9999 -9999 -9999 -9999 -9999 -9999 -9999 -9999 -9999 -9999 -9999 -9999 -9999 -9999 -9999 -9999 -9999 -9999 -9999 -9999 -9999 -9999 -9999 -9999 -9999 -9999 -9999 -9999 -9999 -9999 -9999 -9999 -9999 -9999 -9999 -9999 -9999 -9999 -9999 -9999 -9999 -9999 -9999 -9999 -9999 -9999 -9999 -9999 -9999 -9999 -9999 -9999 -9999 -9999 -9999 -9999 -9999 -9999 -9999 -9999 -9999 -9999 -9999 -9999 -9999 -9999 -9999 -9999 -9999 -9999 -9999 -9999 -9999 -9999 -9999 -9999 -9999 -9999 -9999 -9999 -9999 -9999 -9999 -9999
-9999 616 660 633 675 698 656 652 667 638 650 657 696 693 747 808 966 958 872 818 873 911 736 668 720 735 698 713 675 670 717 646 691 737 819 717 685 684 684 728 845 830 679 760 795 875 920 1044 959 869 876 803 696 702 728 789 713 673 687 694 666 643 615 621 658 665 570 529 603 596 534 565 578 574 596 637 657 662 559 440 399 374 369 352 374 360 339 342 327 341 332 366 438 369 353 346 333 308 288 263 250 289 317 317 349 342 374 388 315 294 318 357 385 378 339 320 310 318 360 361 353 331 323 319 319 359 370 344 342 363 379 420 391 371 355 341 342 332 331 323 322 321 322 315 316 296 276 280 299 304 302 315 311 310 315 317 317 320 331 395 494 471 372 336 326 314 307 295 302 305 298 289 274 282 280 294 300 295 303 303 292 293 289 287 280 268 264 260 253 252 240 242 247 261 268 243 244 248 248 251 244 238 235 223 234 240 251 261 267 269 252 252 255 245 239 232 213 216 224 225 234 238 242 231 230 233 233 236 237 236 238 225 207 206 199 192 177 185 179 190 184 174 207 193 188 186 184 189 190 200 201 192 195 -9999 -9999 -9999 -9999 -9999 -9999 -9999 -9999 -9999 -9999 -9999 -9999 -9999 -9999 -9999 -9999 -9999 -9999 -9999 -9999 -9999 -9999 -9999 -9999 -9999 -9999 -9999 -9999 -9999 -9999 -9999 -9999 -9999 -9999 -9999 -9999 -9999 -9999 -9999 -9999 -9999 -9999 -9999 -9999 -9999 -9999 -9999 -9999 -9999 -9999 -9999 -9999 -9999 -9999 -9999 -9999 -9999 -9999 -9999 -9999 -9999 -9999 -9999 -9999 -9999 -9999 -9999 -9999 -9999 -9999 -9999 -9999 -9999 -9999 -9999 -9999 -9999 -9999 -9999 -9999 -9999 -9999 -9999 -9999 -9999 -9999 -9999 -9999 -9999 -9999 -9999 -9999 -9999 -9999 -9999 -9999 -9999 -9999 -9999 -9999 -9999 -9999 -9999 -9999 -9999 -9999 -9999 -9999 -9999 -9999 -9999 -9999 -9999 -9999 -9999 -9999 -9999 -9999 -9999 -9999 -9999 -9999 -9999 -9999 -9999 -9999 -9999 -9999 -9999 -9999 -9999 -9999 -9999 -9999 -9999 -9999 -9999 -9999 -9999 -9999 -9999 -9999 -9999 -9999 -9999 -9999 -9999 -9999 -9999 -9999 -9999 -9999 -9999 -9999 -9999 -9999 -9999 -9999 -9999 -9999 -9999 -9999 -9999 -9999 -9999 -9999 -9999 -9999 -9999 -9999 -9999 -9999 -9999 -9999 -9999 -9999 -9999 -9999 -9999 -9999 -9999 -9999 -9999 -9999 -9999 -9999 -9999 -9999 -9999 -9999 -9999 -9999 -9999 -9999 -9999 -9999 -9999 -9999 -9999 -9999 -9999 -9999 -9999 -9999 -9999 -9999 -9999 -9999 -9999 -9999 -9999 -9999 -9999 -9999 -9999 -9999 -9999 -9999 -9999 -9999 -9999 -9999 -9999 -9999 -9999 -9999 -9999 -9999 -9999 -9999 -9999 -9999 -9999 -9999 -9999 -9999 -9999 -9999 -9999 -9999 -9999 -9999 -9999 -9999 -9999 -9999 -9999 -9999 -9999 -9999 -9999 -9999 -9999 -9999 -9999 -9999 -9999 -9999 -9999 -9999 -9999 -9999 -9999 -9999 -9999 -9999 -9999 -9999 -9999 -9999 -9999 -9999 -9999 -9999 -9999 -9999 -9999 -9999 -9999 -9999 -9999 -9999 -9999 -9999 -9999 -9999 -9999 -9999 -9999 -9999 -9999 -9999 -9999 -9999 -9999 -9999 -9999 -9999 -9999 -9999 -9999 -9999 -9999 -9999 -9999 -9999 -9999 -9999 -9999 -9999 -9999 -9999 -9999 -9999 -9999 -9999 -9999 -9999 -9999 -9999 -9999 -9999 -9999 -9999 -9999 -9999 -9999 -9999 -9999 -9999 -9999 -9999 -9999 -9999 -9999 -9999 -9999 -9999 -9999 -9999 -9999 -9999 -9999 -9999 -9999 -9999 -9999 -9999 -9999 -9999
-9999 -9999 613 609 605 626 646 678 688 746 789 784 716 764 782 794 883 935 875 810 804 795 799 748 640 675 668 692 639 681 637 692 808 906 871 835 841 791 784 754 800 775 679 686 730 764 852 959 904 757 721 726 763 677 639 665 705 637 629 602 590 595 597 675 712 618 551 559 517 527 608 578 638 652 608 706 663 608 465 395 377 354 346 344 370 352 339 334 321 333 336 363 384 368 349 331 323 305 266 255 267 294 280 298 303 305 317 323 296 284 355 391 349 340 346 323 311 315 337 336 319 315 298 323 347 358 352 336 348 345 370 441 389 382 365 393 361 339 337 332 344 327 316 321 298 281 281 299 314 307 303 327 322 308 302 307 316 322 334 348 461 480 392 360 332 317 305 296 293 285 287 284 280 281 272 272 290 284 292 294 295 283 278 276 270 271 271 274 266 273 265 250 236 242 261 260 254 229 237 245 252 242 240 240 229 241 245 245 259 258 259 258 254 250 242 235 229 218 203 221 223 230 239 234 237 238 241 241 232 222 218 218 201 200 208 200 209 213 195 185 180 162 178 186 177 173 173 171 -9999 -9999 -9999 -9999 -9999 -9999 -9999 -9999 -9999 -9999 -9999 -9999 -9999 -9999 -9999 -9999 -9999 -9999 -9999 -9999 -9999 -9999 -9999 -9999 -9999 -9999 -9999 -9999 -9999 -9999 -9999 -9999 -9999 -9999 -9999 -9999 -9999 -9999 -9999 -9999 -9999 -9999 -9999 -9999 -9999 -9999 -9999 -9999 -9999 -9999 -9999 -9999 -9999 -9999 -9999 -9999 -9999 -9999 -9999 -9999 -9999 -9999 -9999 -9999 -9999 -9999 -9999 -9999 -9999 -9999 -9999 -9999 -9999 -9999 -9999 -9999 -9999 -9999 -9999 -9999 -9999 -9999 -9999 -9999 -9999 -9999 -9999 -9999 -9999 -9999 -9999 -9999 -9999 -9999 -9999 -9999 -9999 -9999 -9999 -9999 -9999 -9999 -9999 -9999 -9999 -9999 -9999 -9999 -9999 -9999 -9999 -9999 -9999 -9999 -9999 -9999 -9999 -9999 -9999 -9999 -9999 -9999 -9999 -9999 -9999 -9999 -9999 -9999 -9999 -9999 -9999 -9999 -9999 -9999 -9999 -9999 -9999 -9999 -9999 -9999 -9999 -9999 -9999 -9999 -9999 -9999 -9999 -9999 -9999 -9999 -9999 -9999 -9999 -9999 -9999 -9999 -9999 -9999 -9999 -9999 -9999 -9999 -9999 -9999 -9999 -9999 -9999 -9999 -9999 -9999 -9999 -9999 -9999 -9999 -9999 -9999 -9999 -9999 -9999 -9999 -9999 -9999 -9999 -9999 -9999 -9999 -9999 -9999 -9999 -9999 -9999 -9999 -9999 -9999 -9999 -9999 -9999 -9999 -9999 -9999 -9999 -9999 -9999 -9999 -9999 -9999 -9999 -9999 -9999 -9999 -9999 -9999 -9999 -9999 -9999 -9999 -9999 -9999 -9999 -9999 -9999 -9999 -9999 -9999 -9999 -9999 -9999 -9999 -9999 -9999 -9999 -9999 -9999 -9999 -9999 -9999 -9999 -9999 -9999 -9999 -9999 -9999 -9999 -9999 -9999 -9999 -9999 -9999 -9999 -9999 -9999 -9999 -9999 -9999 -9999 -9999 -9999 -9999 -9999 -9999 -9999 -9999 -9999 -9999 -9999 -9999 -9999 -9999 -9999 -9999 -9999 -9999 -9999 -9999 -9999 -9999 -9999 -9999 -9999 -9999 -9999 -9999 -9999 -9999 -9999 -9999 -9999 -9999 -9999 -9999 -9999 -9999 -9999 -9999 -9999 -9999 -9999 -9999 -9999 -9999 -9999 -9999 -9999 -9999 -9999 -9999 -9999 -9999 -9999 -9999 -9999 -9999 -9999 -9999 -9999 -9999 -9999 -9999 -9999 -9999 -9999 -9999 -9999 -9999 -9999 -9999 -9999 -9999 -9999 -9999 -9999 -9999 -9999 -9999 -9999 -9999 -9999 -9999 -9999 -9999 -9999 -9999 -9999 -9999 -9999 -9999 -9999 -9999 -9999 -9999 -9999 -9999 -9999 -9999 -9999
-9999 -9999 625 608 642 665 657 649 719 755 795 833 857 940 860 879 965 908 849 841 856 799 720 687 630 676 664 696 646 671 690 802 896 860 848 882 887 889 900 916 874 764 668 758 874 873 902 990 933 872 730 674 676 729 670 584 632 620 557 557 560 587 560 653 645 559 523 530 534 626 643 633 692 689 629 678 670 574 440 383 357 339 344 359 360 348 344 330 319 324 326 350 345 340 327 319 308 318 320 278 253 266 293 309 312 304 302 297 291 288 301 326 349 347 395 360 331 308 311 310 299 305 327 341 356 350 358 327 338 348 357 394 362 360 358 359 349 341 344 344 345 325 314 299 291 295 312 283 276 286 315 327 317 313 305 306 310 330 322 328 366 448 410 369 343 323 307 299 306 300 293 292 289 281 269 263 279 282 273 281 293 289 282 281 285 282 286 287 283 277 267 255 255 255 244 250 252 241 232 225 233 246 240 232 227 224 242 248 252 244 257 253 239 238 238 229 230 218 199 208 223 221 237 227 226 227 225 227 230 226 218 210 210 229 218 206 223 219 214 210 189 178 166 -9999 -9999 -9999 -9999 -9999 -9999 -9999 -9999 -9999 -9999 -9999 -9999 -9999 -9999 -9999 -9999 -9999 -9999 -9999 -9999 -9999 -9999 -9999 -9999 -9999 -9999 -9999 -9999 -9999 -9999 -9999 -9999 -9999 -9999 -9999 -9999 -9999 -9999 -9999 -9999 -9999 -9999 -9999 -9999 -9999 -9999 -9999 -9999 -9999 -9999 -9999 -9999 -9999 -9999 -9999 -9999 -9999 -9999 -9999 -9999 -9999 -9999 -9999 -9999 -9999 -9999 -9999 -9999 -9999 -9999 -9999 -9999 -9999 -9999 -9999 -9999 -9999 -9999 -9999 -9999 -9999 -9999 -9999 -9999 -9999 -9999 -9999 -9999 -9999 -9999 -9999 -9999 -9999 -9999 -9999 -9999 -9999 -9999 -9999 -9999 -9999 -9999 -9999 -9999 -9999 -9999 -9999 -9999 -9999 -9999 -9999 -9999 -9999 -9999 -9999 -9999 -9999 -9999 -9999 -9999 -9999 -9999 -9999 -9999 -9999 -9999 -9999 -9999 -9999 -9999 -9999 -9999 -9999 -9999 -9999 -9999 -9999 -9999 -9999 -9999 -9999 -9999 -9999 -9999 -9999 -9999 -9999 -9999 -9999 -9999 -9999 -9999 -9999 -9999 -9999 -9999 -9999 -9999 -9999 -9999 -9999 -9999 -9999 -9999 -9999 -9999 -9999 -9999 -9999 -9999 -9999 -9999 -9999 -9999 -9999 -9999 -9999 -9999 -9999 -9999 -9999 -9999 -9999 -9999 -9999 -9999 -9999 -9999 -9999 -9999 -9999 -9999 -9999 -9999 -9999 -9999 -9999 -9999 -9999 -9999 -9999 -9999 -9999 -9999 -9999 -9999 -9999 -9999 -9999 -9999 -9999 -9999 -9999 -9999 -9999 -9999 -9999 -9999 -9999 -9999 -9999 -9999 -9999 -9999 -9999 -9999 -9999 -9999 -9999 -9999 -9999 -9999 -9999 -9999 -9999 -9999 -9999 -9999 -9999 -9999 -9999 -9999 -9999 -9999 -9999 -9999 -9999 -9999 -9999 -9999 -9999 -9999 -9999 -9999 -9999 -9999 -9999 -9999 -9999 -9999 -9999 -9999 -9999 -9999 -9999 -9999 -9999 -9999 -9999 -9999 -9999 -9999 -9999 -9999 -9999 -9999 -9999 -9999 -9999 -9999 -9999 -9999 -9999 -9999 -9999 -9999 -9999 -9999 -9999 -9999 -9999 -9999 -9999 -9999 -9999 -9999 -9999 -9999 -9999 -9999 -9999 -9999 -9999 -9999 -9999 -9999 -9999 -9999 -9999 -9999 -9999 -9999 -9999 -9999 -9999 -9999 -9999 -9999 -9999 -9999 -9999 -9999 -9999 -9999 -9999 -9999 -9999 -9999 -9999 -9999 -9999 -9999 -9999 -9999 -9999 -9999 -9999 -9999 -9999 -9999 -9999 -9999 -9999 -9999 -9999 -9999 -9999 -9999 -9999 -9999 -9999 -9999 -9999 -9999 -9999 -9999 -9999 -9999 -9999 -9999
-9999 -9999 607 618 721 813 830 775 728 788 853 877 910 950 847 803 896 887 796 766 795 794 735 659 634 695 665 627 659 698 790 821 834 822 823 865 884 948 1024 987 886 726 698 765 883 783 746 810 789 824 819 720 621 628 607 558 532 533 549 546 528 544 590 686 572 529 528 565 690 665 643 678 616 600 571 587 568 488 404 378 355 344 340 343 341 354 341 336 333 313 320 354 354 343 330 329 310 298 297 258 251 260 288 286 295 286 275 281 264 276 312 337 354 348 361 352 328 305 310 300 292 310 326 345 351 335 330 323 335 366 390 389 338 367 335 336 346 347 349 341 334 318 303 314 317 321 304 286 275 290 296 299 304 311 308 301 312 320 311 318 338 350 371 347 331 320 317 314 312 309 305 304 288 276 275 270 265 270 266 276 286 289 290 291 294 297 294 294 285 281 273 265 265 252 241 230 248 250 238 236 229 225 233 231 232 219 238 235 241 236 255 251 246 232 230 222 217 211 202 194 206 227 235 230 216 214 216 230 220 228 232 240 233 230 239 237 236 234 230 -9999 -9999 -9999 -9999 -9999 -9999 -9999 -9999 -9999 -9999 -9999 -9999 -9999 -9999 -9999 -9999 -9999 -9999 -9999 -9999 -9999 -9999 -9999 -9999 -9999 -9999 -9999 -9999 -9999 -9999 -9999 -9999 -9999 -9999 -9999 -9999 -9999 -9999 -9999 -9999 -9999 -9999 -9999 -9999 -9999 -9999 -9999 -9999 -9999 -9999 -9999 -9999 -9999 -9999 -9999 -9999 -9999 -9999 -9999 -9999 -9999 -9999 -9999 -9999 -9999 -9999 -9999 -9999 -9999 -9999 -9999 -9999 -9999 -9999 -9999 -9999 -9999 -9999 -9999 -9999 -9999 -9999 -9999 -9999 -9999 -9999 -9999 -9999 -9999 -9999 -9999 -9999 -9999 -9999 -9999 -9999 -9999 -9999 -9999 -9999 -9999 -9999 -9999 -9999 -9999 -9999 -9999 -9999 -9999 -9999 -9999 -9999 -9999 -9999 -9999 -9999 -9999 -9999 -9999 -9999 -9999 -9999 -9999 -9999 -9999 -9999 -9999 -9999 -9999 -9999 -9999 -9999 -9999 -9999 -9999 -9999 -9999 -9999 -9999 -9999 -9999 -9999 -9999 -9999 -9999 -9999 -9999 -9999 -9999 -9999 -9999 -9999 -9999 -9999 -9999 -9999 -9999 -9999 -9999 -9999 -9999 -9999 -9999 -9999 -9999 -9999 -9999 -9999 -9999 -9999 -9999 -9999 -9999 -9999 -9999 -9999 -9999 -9999 -9999 -9999 -9999 -9999 -9999 -9999 -9999 -9999 -9999 -9999 -9999 -9999 -9999 -9999 -9999 -9999 -9999 -9999 -9999 -9999 -9999 -9999 -9999 -9999 -9999 -9999 -9999 -9999 -9999 -9999 -9999 -9999 -9999 -9999 -9999 -9999 -9999 -9999 -9999 -9999 -9999 -9999 -9999 -9999 -9999 -9999 -9999 -9999 -9999 -9999 -9999 -9999 -9999 -9999 -9999 -9999 -9999 -9999 -9999 -9999 -9999 -9999 -9999 -9999 -9999 -9999 -9999 -9999 -9999 -9999 -9999 -9999 -9999 -9999 -9999 -9999 -9999 -9999 -9999 -9999 -9999 -9999 -9999 -9999 -9999 -9999 -9999 -9999 -9999 -9999 -9999 -9999 -9999 -9999 -9999 -9999 -9999 -9999 -9999 -9999 -9999 -9999 -9999 -9999 -9999 -9999 -9999 -9999 -9999 -9999 -9999 -9999 -9999 -9999 -9999 -9999 -9999 -9999 -9999 -9999 -9999 -9999 -9999 -9999 -9999 -9999 -9999 -9999 -9999 -9999 -9999 -9999 -9999 -9999 -9999 -9999 -9999 -9999 -9999 -9999 -9999 -9999 -9999 -9999 -9999 -9999 -9999 -9999 -9999 -9999 -9999 -9999 -9999 -9999 -9999 -9999 -9999 -9999 -9999 -9999 -9999 -9999 -9999 -9999 -9999 -9999 -9999 -9999 -9999 -9999 -9999 -9999 -9999 -9999 -9999 -9999 -9999 -9999 -9999 -9999 -9999 -9999 -9999 -9999 -9999 -9999
