NCOLS 523
NROWS 34
XLLCORNER -83.2916666668
YLLCORNER 35.6833333333
CELLSIZE 0.00833333333316142 
NODATA_value -9999 
-9999 -9999 -9999 -9999 -9999 -9999 -9999 -9999 -9999 -9999 -9999 -9999 -9999 -9999 -9999 -9999 -9999 -9999 -9999 -9999 -9999 -9999 -9999 -9999 -9999 -9999 -9999 -9999 -9999 -9999 -9999 -9999 -9999 -9999 -9999 -9999 -9999 -9999 -9999 -9999 -9999 -9999 -9999 -9999 -9999 -9999 -9999 -9999 -9999 -9999 -9999 -9999 -9999 -9999 -9999 -9999 -9999 -9999 -9999 -9999 -9999 -9999 -9999 -9999 -9999 -9999 -9999 -9999 -9999 -9999 -9999 -9999 -9999 -9999 -9999 -9999 -9999 -9999 -9999 -9999 -9999 -9999 -9999 -9999 -9999 -9999 -9999 -9999 -9999 -9999 -9999 -9999 -9999 -9999 -9999 -9999 -9999 -9999 -9999 -9999 -9999 -9999 -9999 -9999 -9999 -9999 -9999 -9999 -9999 -9999 -9999 -9999 -9999 -9999 -9999 -9999 -9999 -9999 -9999 -9999 -9999 -9999 -9999 -9999 -9999 -9999 -9999 -9999 -9999 -9999 -9999 -9999 -9999 -9999 -9999 -9999 -9999 -9999 -9999 -9999 -9999 -9999 -9999 -9999 -9999 -9999 -9999 -9999 -9999 -9999 -9999 -9999 -9999 -9999 -9999 -9999 -9999 -9999 -9999 -9999 -9999 -9999 -9999 -9999 -9999 -9999 -9999 -9999 -9999 -9999 -9999 -9999 -9999 -9999 -9999 -9999 -9999 -9999 -9999 -9999 -9999 -9999 -9999 -9999 -9999 -9999 -9999 -9999 -9999 -9999 -9999 -9999 -9999 -9999 -9999 -9999 -9999 -9999 -9999 -9999 -9999 -9999 -9999 -9999 -9999 -9999 -9999 -9999 -9999 -9999 -9999 -9999 -9999 -9999 -9999 -9999 -9999 -9999 -9999 -9999 -9999 -9999 -9999 -9999 -9999 -9999 -9999 -9999 -9999 -9999 -9999 -9999 -9999 -9999 -9999 -9999 -9999 -9999 -9999 -9999 -9999 -9999 -9999 -9999 -9999 -9999 -9999 -9999 -9999 -9999 -9999 -9999 -9999 -9999 -9999 -9999 -9999 -9999 -9999 -9999 -9999 -9999 -9999 -9999 -9999 -9999 -9999 -9999 -9999 -9999 -9999 -9999 -9999 -9999 -9999 -9999 -9999 -9999 -9999 -9999 -9999 -9999 -9999 -9999 -9999 -9999 -9999 -9999 -9999 -9999 -9999 -9999 -9999 -9999 -9999 -9999 -9999 -9999 -9999 -9999 -9999 -9999 -9999 -9999 -9999 -9999 -9999 -9999 -9999 -9999 -9999 -9999 -9999 -9999 -9999 -9999 -9999 -9999 -9999 -9999 -9999 -9999 -9999 -9999 -9999 -9999 -9999 -9999 -9999 -9999 -9999 -9999 -9999 -9999 239 235 239 247 242 238 236 227 236 239 229 223 231 233 218 214 232 240 223 212 218 232 235 249 254 249 243 233 232 239 242 252 256 259 270 261 253 247 242 236 254 260 257 253 244 244 236 236 240 249 243 241 257 256 250 254 261 265 273 277 283 277 273 270 259 264 259 256 259 251 223 220 234 244 234 244 234 230 243 244 251 259 252 241 242 250 257 253 252 257 245 240 239 232 224 220 221 213 207 206 216 222 209 214 230 227 218 215 210 210 209 200 200 204 197 187 184 185 182 185 186 196 199 192 189 189 192 198 193 183 185 186 187 188 201 181 183 164 162 163 150 166 175 162 167 179 200 187 181 172 171 170 186 164 171 159 170 179 182 183 191 207 209 184 169 172 183 177 166 165 163 166 175 171 173 164 154 150 114 101 95 83 83 -9999 -9999 -9999 -9999 -9999 -9999
-9999 -9999 -9999 -9999 -9999 -9999 -9999 -9999 -9999 -9999 -9999 -9999 -9999 -9999 -9999 -9999 -9999 -9999 -9999 -9999 -9999 -9999 -9999 -9999 -9999 -9999 -9999 -9999 -9999 -9999 -9999 -9999 -9999 -9999 -9999 -9999 -9999 -9999 -9999 -9999 -9999 -9999 -9999 -9999 -9999 -9999 -9999 -9999 -9999 -9999 -9999 -9999 -9999 -9999 -9999 -9999 -9999 -9999 -9999 -9999 -9999 -9999 -9999 -9999 -9999 -9999 -9999 -9999 -9999 -9999 -9999 -9999 -9999 -9999 -9999 -9999 -9999 -9999 -9999 -9999 -9999 -9999 -9999 -9999 -9999 -9999 -9999 -9999 -9999 -9999 -9999 -9999 -9999 -9999 -9999 -9999 -9999 -9999 -9999 -9999 -9999 -9999 -9999 -9999 -9999 -9999 -9999 -9999 -9999 -9999 -9999 -9999 -9999 -9999 -9999 -9999 -9999 -9999 -9999 -9999 -9999 -9999 -9999 -9999 -9999 -9999 -9999 -9999 -9999 -9999 -9999 -9999 -9999 -9999 -9999 -9999 -9999 -9999 -9999 -9999 -9999 -9999 -9999 -9999 -9999 -9999 -9999 -9999 -9999 -9999 -9999 -9999 -9999 -9999 -9999 -9999 -9999 -9999 -9999 -9999 -9999 -9999 -9999 -9999 -9999 -9999 -9999 -9999 -9999 -9999 -9999 -9999 -9999 -9999 -9999 -9999 -9999 -9999 -9999 -9999 -9999 -9999 -9999 -9999 -9999 -9999 -9999 -9999 -9999 -9999 -9999 -9999 -9999 -9999 -9999 -9999 -9999 -9999 -9999 -9999 -9999 -9999 -9999 -9999 -9999 -9999 -9999 -9999 -9999 -9999 -9999 -9999 -9999 -9999 -9999 -9999 -9999 -9999 -9999 -9999 -9999 -9999 -9999 -9999 -9999 -9999 -9999 -9999 -9999 -9999 -9999 -9999 -9999 -9999 -9999 -9999 -9999 -9999 -9999 -9999 -9999 -9999 -9999 -9999 -9999 -9999 -9999 -9999 -9999 -9999 -9999 -9999 -9999 -9999 -9999 -9999 -9999 -9999 -9999 -9999 -9999 -9999 -9999 -9999 -9999 -9999 -9999 -9999 -9999 -9999 -9999 -9999 -9999 -9999 -9999 -9999 -9999 -9999 -9999 -9999 -9999 -9999 -9999 -9999 -9999 -9999 -9999 -9999 -9999 -9999 -9999 -9999 -9999 -9999 -9999 -9999 -9999 -9999 -9999 -9999 -9999 -9999 -9999 -9999 -9999 -9999 -9999 -9999 -9999 -9999 -9999 -9999 -9999 -9999 -9999 260 259 252 248 257 261 270 262 251 248 252 240 232 229 224 213 221 217 221 227 238 246 235 225 235 236 237 243 243 234 238 241 235 231 215 233 231 214 220 228 229 242 247 255 253 254 248 250 246 252 246 250 257 269 272 265 263 245 235 250 250 246 244 233 229 235 237 240 239 246 251 245 242 251 252 258 266 270 280 283 271 264 260 253 248 244 250 250 246 245 231 226 242 231 233 222 236 249 254 257 256 248 240 251 254 246 245 252 259 253 248 244 235 228 215 209 212 211 220 225 222 213 225 230 222 221 220 211 202 199 203 206 198 189 183 193 187 190 185 188 197 194 194 200 191 195 202 208 224 219 207 207 212 195 187 174 163 156 155 153 149 161 162 159 175 187 197 188 175 174 162 160 163 180 172 177 179 176 182 179 181 177 169 159 165 174 170 158 156 159 163 171 159 164 163 137 116 102 93 94 92 97 84 -9999 -9999 -9999 -9999 -9999
-9999 -9999 -9999 -9999 -9999 -9999 -9999 -9999 -9999 -9999 -9999 -9999 -9999 -9999 -9999 -9999 -9999 -9999 -9999 -9999 -9999 -9999 -9999 -9999 -9999 -9999 -9999 -9999 -9999 -9999 -9999 -9999 -9999 -9999 -9999 -9999 -9999 -9999 -9999 -9999 -9999 -9999 -9999 -9999 -9999 -9999 -9999 -9999 -9999 -9999 -9999 -9999 -9999 -9999 -9999 -9999 -9999 -9999 -9999 -9999 -9999 -9999 -9999 -9999 -9999 -9999 -9999 -9999 -9999 -9999 -9999 -9999 -9999 -9999 -9999 -9999 -9999 -9999 -9999 -9999 -9999 -9999 -9999 -9999 -9999 -9999 -9999 -9999 -9999 -9999 -9999 -9999 -9999 -9999 -9999 -9999 -9999 -9999 -9999 -9999 -9999 -9999 -9999 -9999 -9999 -9999 -9999 -9999 -9999 -9999 -9999 -9999 -9999 -9999 -9999 -9999 -9999 -9999 -9999 -9999 -9999 -9999 -9999 -9999 -9999 -9999 -9999 -9999 -9999 -9999 -9999 -9999 -9999 -9999 -9999 -9999 -9999 -9999 -9999 -9999 -9999 -9999 -9999 -9999 -9999 -9999 -9999 -9999 -9999 -9999 -9999 -9999 -9999 -9999 -9999 -9999 -9999 -9999 -9999 -9999 -9999 -9999 -9999 -9999 -9999 -9999 -9999 -9999 -9999 -9999 -9999 -9999 -9999 -9999 -9999 -9999 -9999 -9999 -9999 -9999 -9999 -9999 -9999 -9999 -9999 -9999 -9999 -9999 -9999 -9999 -9999 -9999 -9999 -9999 -9999 -9999 -9999 -9999 -9999 -9999 -9999 -9999 -9999 -9999 -9999 -9999 -9999 -9999 -9999 -9999 -9999 -9999 -9999 -9999 -9999 -9999 -9999 -9999 -9999 -9999 -9999 -9999 -9999 -9999 -9999 -9999 -9999 -9999 -9999 -9999 -9999 -9999 -9999 -9999 -9999 -9999 -9999 -9999 -9999 -9999 -9999 -9999 -9999 -9999 -9999 -9999 -9999 -9999 -9999 -9999 -9999 -9999 -9999 -9999 -9999 -9999 -9999 -9999 -9999 -9999 -9999 -9999 -9999 -9999 -9999 -9999 -9999 -9999 -9999 -9999 -9999 -9999 -9999 -9999 -9999 -9999 -9999 -9999 -9999 -9999 -9999 -9999 -9999 -9999 -9999 -9999 -9999 -9999 -9999 -9999 -9999 -9999 -9999 -9999 -9999 -9999 -9999 -9999 -9999 -9999 273 279 286 277 273 279 274 262 253 245 237 241 241 253 257 247 258 262 244 259 254 262 265 262 255 247 240 233 230 228 216 216 216 213 232 235 234 225 227 241 246 251 251 248 246 249 241 236 225 209 217 219 206 225 237 244 250 253 249 243 256 258 258 256 264 263 263 264 268 267 268 256 246 234 238 242 242 233 232 239 243 234 229 237 236 231 237 245 247 252 260 268 276 271 275 265 257 249 241 246 241 235 230 238 233 234 221 228 238 226 226 238 247 243 247 255 250 240 241 247 237 241 251 257 253 252 239 230 226 221 225 225 214 226 232 217 218 225 229 228 219 209 205 203 209 208 200 195 198 188 189 195 191 190 194 201 201 211 207 197 208 229 273 270 249 246 239 239 196 188 179 171 164 159 165 149 143 151 156 168 192 208 191 168 165 153 155 168 176 177 170 171 176 180 175 173 170 168 169 161 165 163 168 165 151 155 168 161 144 139 114 99 97 103 102 98 93 86 89 102 -9999 -9999 -9999
-9999 -9999 -9999 -9999 -9999 -9999 -9999 -9999 -9999 -9999 -9999 -9999 -9999 -9999 -9999 -9999 -9999 -9999 -9999 -9999 -9999 -9999 -9999 -9999 -9999 -9999 -9999 -9999 -9999 -9999 -9999 -9999 -9999 -9999 -9999 -9999 -9999 -9999 -9999 -9999 -9999 -9999 -9999 -9999 -9999 -9999 -9999 -9999 -9999 -9999 -9999 -9999 -9999 -9999 -9999 -9999 -9999 -9999 -9999 -9999 -9999 -9999 -9999 -9999 -9999 -9999 -9999 -9999 -9999 -9999 -9999 -9999 -9999 -9999 -9999 -9999 -9999 -9999 -9999 -9999 -9999 -9999 -9999 -9999 -9999 -9999 -9999 -9999 -9999 -9999 -9999 -9999 -9999 -9999 -9999 -9999 -9999 -9999 -9999 -9999 -9999 -9999 -9999 -9999 -9999 -9999 -9999 -9999 -9999 -9999 -9999 -9999 -9999 -9999 -9999 -9999 -9999 -9999 -9999 -9999 -9999 -9999 -9999 -9999 -9999 -9999 -9999 -9999 -9999 -9999 -9999 -9999 -9999 -9999 -9999 -9999 -9999 -9999 -9999 -9999 -9999 -9999 -9999 -9999 -9999 -9999 -9999 -9999 -9999 -9999 -9999 -9999 -9999 -9999 -9999 -9999 -9999 -9999 -9999 -9999 -9999 -9999 -9999 -9999 -9999 -9999 -9999 -9999 -9999 -9999 -9999 -9999 -9999 -9999 -9999 -9999 -9999 -9999 -9999 -9999 -9999 -9999 -9999 -9999 -9999 -9999 -9999 -9999 -9999 -9999 -9999 -9999 -9999 -9999 -9999 -9999 -9999 -9999 -9999 -9999 -9999 -9999 -9999 -9999 -9999 -9999 -9999 -9999 -9999 -9999 -9999 -9999 -9999 -9999 -9999 -9999 -9999 -9999 -9999 -9999 -9999 -9999 -9999 -9999 -9999 -9999 -9999 -9999 -9999 -9999 -9999 -9999 -9999 -9999 -9999 -9999 -9999 -9999 -9999 -9999 -9999 -9999 -9999 -9999 -9999 -9999 -9999 -9999 -9999 -9999 -9999 -9999 -9999 -9999 -9999 -9999 -9999 -9999 -9999 -9999 -9999 -9999 -9999 -9999 -9999 -9999 -9999 -9999 -9999 -9999 -9999 -9999 -9999 -9999 -9999 -9999 -9999 -9999 -9999 -9999 -9999 -9999 -9999 -9999 -9999 274 277 279 281 273 266 259 268 271 256 263 250 258 272 255 259 277 276 264 260 268 274 273 269 265 254 230 224 247 249 243 255 264 257 241 249 256 262 255 251 246 237 246 247 241 224 214 212 218 229 228 216 216 237 250 250 250 240 238 237 246 244 240 233 213 214 210 214 227 234 241 243 242 239 242 251 254 246 246 255 267 272 267 259 263 261 249 241 235 232 241 234 228 246 241 225 227 232 239 241 246 247 250 255 261 264 272 277 268 263 256 254 254 260 256 249 238 239 236 227 225 229 223 222 228 222 237 242 241 246 249 249 243 234 244 240 245 248 248 240 248 243 232 228 229 225 221 220 228 223 223 223 232 224 219 211 207 202 213 216 211 204 201 190 191 190 199 200 197 201 211 213 215 201 200 212 254 264 263 244 229 215 217 184 177 172 174 167 171 165 160 160 149 146 163 180 177 168 162 152 152 166 168 176 175 169 175 174 173 175 175 169 172 177 166 154 166 168 160 149 158 161 151 143 129 120 100 90 101 98 95 90 87 88 98 99 -9999 -9999
-9999 -9999 -9999 -9999 -9999 -9999 -9999 -9999 -9999 -9999 -9999 -9999 -9999 -9999 -9999 -9999 -9999 -9999 -9999 -9999 -9999 -9999 -9999 -9999 -9999 -9999 -9999 -9999 -9999 -9999 -9999 -9999 -9999 -9999 -9999 -9999 -9999 -9999 -9999 -9999 -9999 -9999 -9999 -9999 -9999 -9999 -9999 -9999 -9999 -9999 -9999 -9999 -9999 -9999 -9999 -9999 -9999 -9999 -9999 -9999 -9999 -9999 -9999 -9999 -9999 -9999 -9999 -9999 -9999 -9999 -9999 -9999 -9999 -9999 -9999 -9999 -9999 -9999 -9999 -9999 -9999 -9999 -9999 -9999 -9999 -9999 -9999 -9999 -9999 -9999 -9999 -9999 -9999 -9999 -9999 -9999 -9999 -9999 -9999 -9999 -9999 -9999 -9999 -9999 -9999 -9999 -9999 -9999 -9999 -9999 -9999 -9999 -9999 -9999 -9999 -9999 -9999 -9999 -9999 -9999 -9999 -9999 -9999 -9999 -9999 -9999 -9999 -9999 -9999 -9999 -9999 -9999 -9999 -9999 -9999 -9999 -9999 -9999 -9999 -9999 -9999 -9999 -9999 -9999 -9999 -9999 -9999 -9999 -9999 -9999 -9999 -9999 -9999 -9999 -9999 -9999 -9999 -9999 -9999 -9999 -9999 -9999 -9999 -9999 -9999 -9999 -9999 -9999 -9999 -9999 -9999 -9999 -9999 -9999 -9999 -9999 -9999 -9999 -9999 -9999 -9999 -9999 -9999 -9999 -9999 -9999 -9999 -9999 -9999 -9999 -9999 -9999 -9999 -9999 -9999 -9999 -9999 -9999 -9999 -9999 -9999 -9999 -9999 -9999 -9999 -9999 -9999 -9999 -9999 -9999 -9999 -9999 -9999 -9999 -9999 -9999 -9999 -9999 -9999 -9999 -9999 -9999 -9999 -9999 -9999 -9999 -9999 -9999 -9999 -9999 -9999 -9999 -9999 -9999 -9999 -9999 -9999 -9999 -9999 -9999 -9999 -9999 -9999 -9999 -9999 -9999 -9999 -9999 -9999 -9999 -9999 -9999 -9999 -9999 -9999 -9999 -9999 -9999 -9999 -9999 -9999 -9999 -9999 -9999 -9999 -9999 -9999 -9999 -9999 -9999 -9999 376 362 338 319 303 292 286 306 310 303 289 296 294 291 279 269 267 272 270 263 251 252 255 249 258 258 248 263 257 259 276 271 257 248 263 261 265 276 264 259 243 231 229 247 238 251 250 257 240 238 244 252 257 248 240 237 234 237 236 233 232 227 215 218 216 216 235 235 239 248 251 241 229 226 243 243 231 228 223 209 228 228 233 236 231 229 231 238 249 256 245 242 256 258 268 268 264 261 259 253 239 240 226 238 231 230 242 241 230 225 237 243 233 234 241 248 244 252 261 264 276 283 276 265 263 264 268 261 252 255 246 252 246 243 246 244 242 236 226 217 232 231 242 247 240 245 248 236 231 238 249 243 242 238 239 243 235 237 236 230 229 226 229 232 231 235 231 227 220 216 210 207 213 213 205 197 191 190 196 198 198 209 208 211 219 219 206 202 210 221 225 226 238 227 212 197 191 184 184 185 176 177 165 165 161 157 158 147 150 164 163 157 150 146 171 173 173 174 171 165 165 166 168 175 174 168 158 177 177 161 150 161 160 148 140 144 145 129 113 101 84 87 93 95 101 95 88 83 94 90 84 -9999
-9999 -9999 -9999 -9999 -9999 -9999 -9999 -9999 -9999 -9999 -9999 -9999 -9999 -9999 -9999 -9999 -9999 -9999 -9999 -9999 -9999 -9999 -9999 -9999 -9999 -9999 -9999 -9999 -9999 -9999 -9999 -9999 -9999 -9999 -9999 -9999 -9999 -9999 -9999 -9999 -9999 -9999 -9999 -9999 -9999 -9999 -9999 -9999 -9999 -9999 -9999 -9999 -9999 -9999 -9999 -9999 -9999 -9999 -9999 -9999 -9999 -9999 -9999 -9999 -9999 -9999 -9999 -9999 -9999 -9999 -9999 -9999 -9999 -9999 -9999 -9999 -9999 -9999 -9999 -9999 -9999 -9999 -9999 -9999 -9999 -9999 -9999 -9999 -9999 -9999 -9999 -9999 -9999 -9999 -9999 -9999 -9999 -9999 -9999 -9999 -9999 -9999 -9999 -9999 -9999 -9999 -9999 -9999 -9999 -9999 -9999 -9999 -9999 -9999 -9999 -9999 -9999 -9999 -9999 -9999 -9999 -9999 -9999 -9999 -9999 -9999 -9999 -9999 -9999 -9999 -9999 -9999 -9999 -9999 -9999 -9999 -9999 -9999 -9999 -9999 -9999 -9999 -9999 -9999 -9999 -9999 -9999 -9999 -9999 -9999 -9999 -9999 -9999 -9999 -9999 -9999 -9999 -9999 -9999 -9999 -9999 -9999 -9999 -9999 -9999 -9999 -9999 -9999 -9999 -9999 -9999 -9999 -9999 -9999 -9999 -9999 -9999 -9999 -9999 -9999 -9999 -9999 -9999 -9999 -9999 -9999 -9999 -9999 -9999 -9999 -9999 -9999 -9999 -9999 -9999 -9999 -9999 -9999 -9999 -9999 -9999 -9999 -9999 -9999 -9999 -9999 -9999 -9999 -9999 -9999 -9999 -9999 -9999 -9999 -9999 -9999 -9999 -9999 -9999 -9999 -9999 -9999 -9999 -9999 -9999 -9999 -9999 -9999 -9999 -9999 -9999 -9999 -9999 -9999 -9999 -9999 -9999 -9999 -9999 -9999 -9999 -9999 -9999 -9999 -9999 -9999 -9999 -9999 -9999 -9999 -9999 -9999 -9999 -9999 -9999 -9999 -9999 -9999 -9999 355 351 334 335 329 313 321 309 323 341 339 338 332 338 326 316 301 298 271 279 291 295 285 280 279 282 274 270 269 264 259 269 269 268 268 259 255 247 256 267 262 259 261 268 260 247 240 253 266 274 263 251 245 242 229 237 234 235 248 254 252 245 231 241 253 253 246 235 233 223 223 224 229 239 232 210 209 227 235 227 233 245 241 237 235 224 241 247 236 229 216 214 233 228 222 224 222 235 239 240 240 239 235 250 257 267 269 264 260 255 251 248 243 227 227 241 221 232 242 237 222 237 247 249 254 256 258 258 263 267 267 278 283 278 275 270 269 273 269 263 258 250 250 250 251 251 250 248 241 237 229 223 215 225 240 246 235 235 243 239 226 237 243 238 242 231 240 243 248 241 237 236 239 239 244 236 236 235 221 215 213 209 205 213 217 210 198 203 200 195 201 204 198 205 212 219 224 212 209 207 212 213 212 227 230 227 218 184 185 185 190 181 182 183 173 165 161 156 148 143 142 153 160 157 145 161 174 176 175 165 161 162 164 172 179 181 172 161 156 165 158 158 145 152 152 149 145 131 125 119 127 126 99 82 84 86 93 95 86 78 91 81 92 -9999
-9999 -9999 -9999 -9999 -9999 -9999 -9999 -9999 -9999 -9999 -9999 -9999 -9999 -9999 -9999 -9999 -9999 -9999 -9999 -9999 -9999 -9999 -9999 -9999 -9999 -9999 -9999 -9999 -9999 -9999 -9999 -9999 -9999 -9999 -9999 -9999 -9999 -9999 -9999 -9999 -9999 -9999 -9999 -9999 -9999 -9999 -9999 -9999 -9999 -9999 -9999 -9999 -9999 -9999 -9999 -9999 -9999 -9999 -9999 -9999 -9999 -9999 -9999 -9999 -9999 -9999 -9999 -9999 -9999 -9999 -9999 -9999 -9999 -9999 -9999 -9999 -9999 -9999 -9999 -9999 -9999 -9999 -9999 -9999 -9999 -9999 -9999 -9999 -9999 -9999 -9999 -9999 -9999 -9999 -9999 -9999 -9999 -9999 -9999 -9999 -9999 -9999 -9999 -9999 -9999 -9999 -9999 -9999 -9999 -9999 -9999 -9999 -9999 -9999 -9999 -9999 -9999 -9999 -9999 -9999 -9999 -9999 -9999 -9999 -9999 -9999 -9999 -9999 -9999 -9999 -9999 -9999 -9999 -9999 -9999 -9999 -9999 -9999 -9999 -9999 -9999 -9999 -9999 -9999 -9999 -9999 -9999 -9999 -9999 -9999 -9999 -9999 -9999 -9999 -9999 -9999 -9999 -9999 -9999 -9999 -9999 -9999 -9999 -9999 -9999 -9999 -9999 -9999 -9999 -9999 -9999 -9999 -9999 -9999 -9999 -9999 -9999 -9999 -9999 -9999 -9999 -9999 -9999 -9999 -9999 -9999 -9999 -9999 -9999 -9999 -9999 -9999 -9999 -9999 -9999 -9999 -9999 -9999 -9999 -9999 -9999 -9999 -9999 -9999 -9999 -9999 -9999 -9999 -9999 -9999 -9999 -9999 -9999 -9999 -9999 -9999 -9999 -9999 -9999 -9999 -9999 -9999 -9999 -9999 -9999 -9999 -9999 -9999 -9999 -9999 -9999 -9999 -9999 -9999 -9999 -9999 -9999 -9999 -9999 -9999 -9999 -9999 -9999 -9999 -9999 -9999 -9999 335 327 338 340 349 360 352 352 353 368 367 358 356 361 358 349 334 322 309 309 324 334 328 331 315 328 324 315 302 285 272 269 273 277 275 259 274 280 283 284 276 267 275 277 269 262 273 269 261 258 247 255 256 250 251 250 259 242 237 253 264 270 267 262 259 252 242 217 222 229 253 244 240 251 236 235 242 247 251 250 234 235 243 235 231 218 228 216 222 235 224 223 235 245 247 235 229 222 237 231 236 235 218 217 225 216 216 223 214 218 221 230 231 230 239 245 255 264 265 256 254 249 246 259 250 227 230 229 222 239 236 225 233 247 249 247 244 244 243 250 259 270 272 284 283 260 259 258 262 262 260 261 254 245 240 242 247 248 241 248 251 244 240 230 221 218 232 233 225 232 244 239 227 234 237 237 234 228 238 247 247 249 249 243 248 251 243 243 242 235 222 222 220 219 213 218 209 207 210 210 206 198 210 210 210 207 205 217 218 213 219 214 213 200 201 219 209 196 190 180 173 183 192 185 191 181 168 165 171 162 157 156 162 149 146 139 144 162 162 166 170 159 161 171 178 180 187 190 172 155 151 146 144 146 150 137 140 141 146 140 142 148 144 130 99 93 92 94 83 91 83 78 83 87 98 97
-9999 -9999 -9999 -9999 -9999 -9999 -9999 -9999 -9999 -9999 -9999 -9999 -9999 -9999 -9999 -9999 -9999 -9999 -9999 -9999 -9999 -9999 -9999 -9999 -9999 -9999 -9999 -9999 -9999 -9999 -9999 -9999 -9999 -9999 -9999 -9999 -9999 -9999 -9999 -9999 -9999 -9999 -9999 -9999 -9999 -9999 -9999 -9999 -9999 -9999 -9999 -9999 -9999 -9999 -9999 -9999 -9999 -9999 -9999 -9999 -9999 -9999 -9999 -9999 -9999 -9999 -9999 -9999 -9999 -9999 -9999 -9999 -9999 -9999 -9999 -9999 -9999 -9999 -9999 -9999 -9999 -9999 -9999 -9999 -9999 -9999 -9999 -9999 -9999 -9999 -9999 -9999 -9999 -9999 -9999 -9999 -9999 -9999 -9999 -9999 -9999 -9999 -9999 -9999 -9999 -9999 -9999 -9999 -9999 -9999 -9999 -9999 -9999 -9999 -9999 -9999 -9999 -9999 -9999 -9999 -9999 -9999 -9999 -9999 -9999 -9999 -9999 -9999 -9999 -9999 -9999 -9999 -9999 -9999 -9999 -9999 -9999 -9999 -9999 -9999 -9999 -9999 -9999 -9999 -9999 -9999 -9999 -9999 -9999 -9999 -9999 -9999 -9999 -9999 -9999 -9999 -9999 -9999 -9999 -9999 -9999 -9999 -9999 -9999 -9999 -9999 -9999 -9999 -9999 -9999 -9999 -9999 -9999 -9999 -9999 -9999 -9999 -9999 -9999 -9999 -9999 -9999 -9999 -9999 -9999 -9999 -9999 -9999 -9999 -9999 -9999 -9999 -9999 -9999 -9999 -9999 -9999 -9999 -9999 -9999 -9999 -9999 -9999 -9999 -9999 -9999 -9999 -9999 -9999 -9999 -9999 -9999 -9999 -9999 -9999 -9999 -9999 -9999 -9999 -9999 -9999 -9999 -9999 -9999 -9999 -9999 -9999 -9999 -9999 -9999 -9999 -9999 -9999 -9999 -9999 387 402 374 351 371 373 379 485 472 407 380 357 341 337 328 343 347 352 350 342 339 343 343 341 355 369 364 359 350 343 336 318 300 311 308 317 301 306 305 313 302 293 285 259 252 253 266 252 254 280 292 264 264 257 265 272 266 251 270 270 271 270 260 251 240 246 242 245 240 233 234 242 258 264 265 269 269 263 251 240 229 225 231 228 230 241 247 226 234 237 250 247 243 254 251 244 233 219 214 210 230 231 218 227 238 238 243 243 237 220 233 224 224 237 230 209 217 229 237 238 226 227 227 241 244 243 247 256 265 261 252 250 245 252 257 249 241 225 220 219 235 241 221 222 238 241 235 230 235 236 243 248 259 262 273 281 275 255 242 245 255 258 256 251 252 251 245 236 238 238 237 243 244 247 248 237 224 215 223 219 230 237 246 235 224 228 233 232 223 237 241 245 238 242 245 253 253 245 227 235 235 229 226 228 230 223 220 216 213 218 221 218 211 202 212 216 212 208 214 221 213 213 214 204 195 193 200 213 193 178 179 178 170 174 173 178 176 175 176 172 175 167 166 167 174 170 167 155 143 143 156 159 158 157 166 172 178 181 180 179 166 167 163 158 155 150 139 137 124 123 121 123 142 152 131 117 95 90 95 87 77 87 87 78 82 90 90 95
-9999 -9999 -9999 -9999 -9999 -9999 -9999 -9999 -9999 -9999 -9999 -9999 -9999 -9999 -9999 -9999 -9999 -9999 -9999 -9999 -9999 -9999 -9999 -9999 -9999 -9999 -9999 -9999 -9999 -9999 -9999 -9999 -9999 -9999 -9999 -9999 -9999 -9999 -9999 -9999 -9999 -9999 -9999 -9999 -9999 -9999 -9999 -9999 -9999 -9999 -9999 -9999 -9999 -9999 -9999 -9999 -9999 -9999 -9999 -9999 -9999 -9999 -9999 -9999 -9999 -9999 -9999 -9999 -9999 -9999 -9999 -9999 -9999 -9999 -9999 -9999 -9999 -9999 -9999 -9999 -9999 -9999 -9999 -9999 -9999 -9999 -9999 -9999 -9999 -9999 -9999 -9999 -9999 -9999 -9999 -9999 -9999 -9999 -9999 -9999 -9999 -9999 -9999 -9999 -9999 -9999 -9999 -9999 -9999 -9999 -9999 -9999 -9999 -9999 -9999 -9999 -9999 -9999 -9999 -9999 -9999 -9999 -9999 -9999 -9999 -9999 -9999 -9999 -9999 -9999 -9999 -9999 -9999 -9999 -9999 -9999 -9999 -9999 -9999 -9999 -9999 -9999 -9999 -9999 -9999 -9999 -9999 -9999 -9999 -9999 -9999 -9999 -9999 -9999 -9999 -9999 -9999 -9999 -9999 -9999 -9999 -9999 -9999 -9999 -9999 -9999 -9999 -9999 -9999 -9999 -9999 -9999 -9999 -9999 -9999 -9999 -9999 -9999 -9999 -9999 -9999 -9999 -9999 -9999 -9999 -9999 -9999 -9999 -9999 -9999 -9999 -9999 -9999 -9999 -9999 -9999 -9999 -9999 -9999 -9999 -9999 -9999 -9999 -9999 -9999 -9999 -9999 -9999 -9999 -9999 -9999 -9999 -9999 -9999 -9999 -9999 -9999 -9999 -9999 -9999 -9999 -9999 -9999 -9999 -9999 385 436 426 400 397 423 460 467 404 387 372 360 352 345 365 355 390 501 502 445 399 362 343 333 320 339 337 338 349 338 322 329 339 350 360 365 354 348 343 339 337 325 304 282 284 286 294 282 285 279 285 277 281 276 279 281 268 276 258 251 253 247 245 250 262 255 251 253 261 258 262 259 260 252 235 238 236 235 228 237 223 237 250 258 258 261 260 258 254 243 234 226 219 213 224 239 248 239 225 237 236 243 256 252 243 246 239 232 212 212 228 218 220 231 232 232 242 240 230 219 226 225 213 220 223 211 218 240 244 249 242 239 238 249 253 258 258 251 257 256 246 242 242 259 261 242 236 228 216 234 240 234 213 221 218 220 227 234 237 248 253 260 271 271 279 278 259 244 230 238 240 249 257 251 244 240 238 234 233 229 227 230 238 235 241 233 228 219 211 216 220 230 240 240 239 231 219 225 221 239 246 243 232 231 243 248 253 240 226 220 223 217 218 218 221 222 222 222 220 225 219 209 202 207 219 228 233 220 224 222 208 202 199 199 191 186 189 203 184 174 175 168 165 170 182 166 162 162 165 171 171 162 163 166 159 157 158 150 142 144 151 151 157 165 166 165 171 170 169 172 170 167 157 153 145 142 133 125 120 123 125 120 114 121 126 109 101 85 84 92 80 81 90 78 83 86 94 93
-9999 -9999 -9999 -9999 -9999 -9999 -9999 -9999 -9999 -9999 -9999 -9999 -9999 -9999 -9999 -9999 -9999 -9999 -9999 -9999 -9999 -9999 -9999 -9999 -9999 -9999 -9999 -9999 -9999 -9999 -9999 -9999 -9999 -9999 -9999 -9999 -9999 -9999 -9999 -9999 -9999 -9999 -9999 -9999 -9999 -9999 -9999 -9999 -9999 -9999 -9999 -9999 -9999 -9999 -9999 -9999 -9999 -9999 -9999 -9999 -9999 -9999 -9999 -9999 -9999 -9999 -9999 -9999 -9999 -9999 -9999 -9999 -9999 -9999 -9999 -9999 -9999 -9999 -9999 -9999 -9999 -9999 -9999 -9999 -9999 -9999 -9999 -9999 -9999 -9999 -9999 -9999 -9999 -9999 -9999 -9999 -9999 -9999 -9999 -9999 -9999 -9999 -9999 -9999 -9999 -9999 -9999 -9999 -9999 -9999 -9999 -9999 -9999 -9999 -9999 -9999 -9999 -9999 -9999 -9999 -9999 -9999 -9999 -9999 -9999 -9999 -9999 -9999 -9999 -9999 -9999 -9999 -9999 -9999 -9999 -9999 -9999 -9999 -9999 -9999 -9999 -9999 -9999 -9999 -9999 -9999 -9999 -9999 -9999 -9999 -9999 -9999 -9999 -9999 -9999 -9999 -9999 -9999 -9999 -9999 -9999 -9999 -9999 -9999 -9999 -9999 -9999 -9999 -9999 -9999 -9999 -9999 -9999 -9999 -9999 -9999 -9999 -9999 -9999 -9999 -9999 -9999 -9999 -9999 -9999 -9999 -9999 -9999 -9999 -9999 -9999 -9999 -9999 -9999 -9999 -9999 -9999 -9999 -9999 -9999 -9999 -9999 -9999 -9999 -9999 -9999 -9999 -9999 -9999 -9999 -9999 -9999 -9999 -9999 423 436 420 436 446 464 427 417 410 408 417 411 383 389 376 384 391 398 417 379 356 353 345 345 333 336 343 366 472 489 439 388 364 346 327 323 313 327 343 339 327 327 339 342 343 356 363 352 343 338 330 340 333 317 299 297 293 275 279 275 270 258 260 274 279 274 273 253 248 246 243 246 255 257 252 253 258 244 249 244 241 236 238 238 233 227 230 231 231 224 243 228 236 239 250 259 259 250 250 250 252 242 238 232 217 217 233 243 249 243 225 230 244 251 241 239 234 231 218 217 211 211 218 230 230 220 232 248 239 228 216 206 210 223 211 211 211 223 233 236 245 252 242 244 251 254 250 257 248 248 249 247 236 242 248 238 231 227 218 232 237 227 219 223 239 243 246 247 252 249 250 258 260 269 275 282 277 257 241 228 224 229 239 246 254 249 248 244 246 240 235 227 225 225 228 232 238 237 224 211 207 216 232 245 249 239 232 221 208 226 239 240 242 230 229 242 243 246 235 229 219 210 206 205 199 209 203 213 209 208 220 222 223 213 216 224 238 237 227 226 217 206 203 199 206 199 189 182 181 177 177 190 175 177 208 207 177 162 156 153 161 159 150 147 147 140 144 142 138 137 132 145 150 154 158 161 163 163 163 164 166 159 162 155 153 159 156 160 161 130 146 148 128 116 123 121 119 130 95 76 83 90 80 79 77 77 86 96 90
-9999 -9999 -9999 -9999 -9999 -9999 -9999 -9999 -9999 -9999 -9999 -9999 -9999 -9999 -9999 -9999 -9999 -9999 -9999 -9999 -9999 -9999 -9999 -9999 -9999 -9999 -9999 -9999 -9999 -9999 -9999 -9999 -9999 -9999 -9999 -9999 -9999 -9999 -9999 -9999 -9999 -9999 -9999 -9999 -9999 -9999 -9999 -9999 -9999 -9999 -9999 -9999 -9999 -9999 -9999 -9999 -9999 -9999 -9999 -9999 -9999 -9999 -9999 -9999 -9999 -9999 -9999 -9999 -9999 -9999 -9999 -9999 -9999 -9999 -9999 -9999 -9999 -9999 -9999 -9999 -9999 -9999 -9999 -9999 -9999 -9999 -9999 -9999 -9999 -9999 -9999 -9999 -9999 -9999 -9999 -9999 -9999 -9999 -9999 -9999 -9999 -9999 -9999 -9999 -9999 -9999 -9999 -9999 -9999 -9999 -9999 -9999 -9999 -9999 -9999 -9999 -9999 -9999 -9999 -9999 -9999 -9999 -9999 -9999 -9999 -9999 -9999 -9999 -9999 -9999 -9999 -9999 -9999 -9999 -9999 -9999 -9999 -9999 -9999 -9999 -9999 -9999 -9999 -9999 -9999 -9999 -9999 -9999 -9999 -9999 -9999 -9999 -9999 -9999 -9999 -9999 -9999 -9999 -9999 -9999 -9999 -9999 -9999 -9999 -9999 -9999 -9999 -9999 -9999 -9999 -9999 -9999 -9999 -9999 -9999 -9999 -9999 -9999 -9999 -9999 -9999 -9999 -9999 -9999 -9999 -9999 -9999 -9999 -9999 -9999 -9999 -9999 -9999 -9999 -9999 -9999 -9999 -9999 -9999 -9999 -9999 -9999 -9999 -9999 -9999 331 350 347 366 389 411 415 391 389 422 394 398 403 435 477 498 482 435 409 392 382 366 364 362 363 356 366 373 391 385 375 365 340 334 323 341 377 451 515 514 446 394 353 338 322 313 336 339 327 312 321 321 338 337 344 360 366 347 335 333 324 321 324 320 309 289 289 306 297 276 270 261 256 255 260 258 269 272 278 272 263 271 257 265 274 273 267 262 250 242 252 242 244 254 242 256 252 248 236 232 228 224 229 238 258 260 247 245 241 243 245 245 234 224 213 228 238 248 238 229 223 238 241 242 235 224 230 230 222 209 208 216 226 221 217 237 248 242 227 224 210 218 238 236 237 232 226 224 235 242 246 253 257 254 246 241 250 246 241 246 252 243 233 229 228 238 220 221 235 230 224 231 238 245 244 246 251 255 260 255 255 261 273 274 283 275 255 240 231 220 221 230 239 243 240 246 247 245 238 240 239 237 230 220 220 226 231 231 227 214 212 228 246 242 242 239 231 211 229 228 229 229 232 231 238 243 250 239 225 224 213 208 197 200 194 199 211 200 199 209 225 230 235 227 228 236 240 230 223 217 210 219 217 211 197 183 184 188 180 183 185 178 183 186 186 177 171 167 160 154 151 152 161 157 149 155 153 153 147 135 142 154 150 153 157 159 152 150 149 153 159 171 175 181 176 168 155 136 122 138 142 126 122 152 147 149 126 91 75 86 93 86 71 76 75 89 91 97
-9999 -9999 -9999 -9999 -9999 -9999 -9999 -9999 -9999 -9999 -9999 -9999 -9999 -9999 -9999 -9999 -9999 -9999 -9999 -9999 -9999 -9999 -9999 -9999 -9999 -9999 -9999 -9999 -9999 -9999 -9999 -9999 -9999 -9999 -9999 -9999 -9999 -9999 -9999 -9999 -9999 -9999 -9999 -9999 -9999 -9999 -9999 -9999 -9999 -9999 -9999 -9999 -9999 -9999 -9999 -9999 -9999 -9999 -9999 -9999 -9999 -9999 -9999 -9999 -9999 -9999 -9999 -9999 -9999 -9999 -9999 -9999 -9999 -9999 -9999 -9999 -9999 -9999 -9999 -9999 -9999 -9999 -9999 -9999 -9999 -9999 -9999 -9999 -9999 -9999 -9999 -9999 -9999 -9999 -9999 -9999 -9999 -9999 -9999 -9999 -9999 -9999 -9999 -9999 -9999 -9999 -9999 -9999 -9999 -9999 -9999 -9999 -9999 -9999 -9999 -9999 -9999 -9999 -9999 -9999 -9999 -9999 -9999 -9999 -9999 -9999 -9999 -9999 -9999 -9999 -9999 -9999 -9999 -9999 -9999 -9999 -9999 -9999 -9999 -9999 -9999 -9999 -9999 -9999 -9999 -9999 -9999 -9999 -9999 -9999 -9999 -9999 -9999 -9999 -9999 -9999 -9999 -9999 -9999 -9999 -9999 -9999 -9999 -9999 -9999 -9999 -9999 -9999 -9999 -9999 -9999 -9999 -9999 -9999 -9999 -9999 -9999 -9999 -9999 -9999 -9999 -9999 -9999 -9999 -9999 -9999 -9999 -9999 -9999 -9999 -9999 -9999 -9999 -9999 -9999 386 361 356 379 351 347 360 344 329 332 349 364 388 405 415 399 390 386 379 377 378 383 395 417 430 488 457 400 386 423 414 379 356 357 353 348 370 379 373 379 395 366 351 343 320 340 356 383 439 458 512 469 386 335 320 312 330 331 325 309 318 331 332 338 354 365 347 329 319 324 329 315 317 319 309 298 303 308 297 293 286 285 278 277 283 283 293 293 283 270 275 269 280 281 282 283 279 272 261 267 266 261 262 266 260 267 255 240 236 227 224 227 225 230 249 242 236 238 243 233 233 236 240 235 218 219 240 241 237 236 222 229 232 245 246 241 248 237 224 214 208 209 222 215 231 238 237 241 246 237 234 219 212 230 226 219 214 226 236 235 238 252 247 254 254 238 241 243 234 246 248 241 225 221 225 238 221 223 224 213 221 231 239 237 243 253 255 252 246 253 258 260 268 274 276 275 265 251 241 234 218 212 223 238 228 235 232 239 232 233 239 242 234 229 220 214 221 229 232 221 206 227 231 231 240 231 228 218 227 215 224 234 239 241 244 246 246 237 227 219 212 211 205 193 187 190 195 201 205 216 225 236 239 230 221 230 222 227 223 215 211 221 218 201 188 190 194 192 188 188 189 183 183 178 172 171 163 157 156 166 166 166 166 164 163 160 159 153 148 139 145 155 141 149 177 156 153 147 160 177 196 181 181 185 169 157 143 153 134 144 151 145 143 154 138 121 95 87 74 88 87 86 69 68 73 89 87 93
-9999 -9999 -9999 -9999 -9999 -9999 -9999 -9999 -9999 -9999 -9999 -9999 -9999 -9999 -9999 -9999 -9999 -9999 -9999 -9999 -9999 -9999 -9999 -9999 -9999 -9999 -9999 -9999 -9999 -9999 -9999 -9999 -9999 -9999 -9999 -9999 -9999 -9999 -9999 -9999 -9999 -9999 -9999 -9999 -9999 -9999 -9999 -9999 -9999 -9999 -9999 -9999 -9999 -9999 -9999 -9999 -9999 -9999 -9999 -9999 -9999 -9999 -9999 -9999 -9999 -9999 -9999 -9999 -9999 -9999 -9999 -9999 -9999 -9999 -9999 -9999 -9999 -9999 -9999 -9999 -9999 -9999 -9999 -9999 -9999 -9999 -9999 -9999 -9999 -9999 -9999 -9999 -9999 -9999 -9999 -9999 -9999 -9999 -9999 -9999 -9999 -9999 -9999 -9999 -9999 -9999 -9999 -9999 -9999 -9999 -9999 -9999 -9999 -9999 -9999 -9999 -9999 -9999 -9999 -9999 -9999 -9999 -9999 -9999 -9999 -9999 -9999 -9999 -9999 -9999 -9999 -9999 -9999 -9999 -9999 -9999 -9999 -9999 -9999 -9999 -9999 -9999 -9999 -9999 -9999 -9999 -9999 -9999 -9999 -9999 -9999 -9999 -9999 -9999 -9999 -9999 -9999 -9999 -9999 -9999 -9999 -9999 -9999 -9999 -9999 -9999 -9999 -9999 -9999 -9999 -9999 -9999 -9999 -9999 -9999 -9999 -9999 -9999 -9999 -9999 -9999 -9999 -9999 -9999 -9999 -9999 355 336 375 382 376 390 372 377 384 383 393 365 336 337 338 346 346 322 329 350 365 393 416 422 394 385 382 376 374 371 379 381 387 389 392 382 367 383 384 390 388 385 368 356 341 349 349 364 387 376 361 357 352 337 320 342 358 396 383 389 395 378 330 306 316 327 320 304 311 325 320 333 351 349 335 333 331 315 311 321 321 307 310 316 308 315 309 306 305 300 299 296 300 298 294 288 294 283 282 284 284 288 275 271 275 274 269 268 266 258 253 258 260 260 262 256 250 246 248 245 238 231 230 226 231 216 222 222 225 238 228 227 236 219 216 230 238 226 235 223 218 224 245 254 248 245 233 232 223 213 202 207 227 235 224 234 233 249 238 233 229 224 208 213 221 238 223 223 235 245 251 243 247 249 246 232 231 239 249 246 242 220 224 225 235 219 223 216 223 233 227 236 240 245 252 248 240 246 245 254 256 267 279 272 268 270 259 248 241 230 207 212 229 228 224 217 233 226 231 240 243 232 231 224 220 217 214 219 220 208 217 227 228 238 239 236 216 221 226 236 238 238 235 246 253 246 244 239 228 211 215 216 207 194 187 193 204 216 223 234 237 229 224 223 218 216 224 224 216 209 217 212 197 194 202 195 188 185 192 192 197 192 173 165 162 163 164 173 174 171 171 175 174 170 165 157 155 151 136 143 147 145 158 170 147 137 140 164 181 167 177 185 186 178 174 161 169 147 164 168 154 156 142 120 106 89 88 78 76 84 85 70 79 84 85 91 -9999
-9999 -9999 -9999 -9999 -9999 -9999 -9999 -9999 -9999 -9999 -9999 -9999 -9999 -9999 -9999 -9999 -9999 -9999 -9999 -9999 -9999 -9999 -9999 -9999 -9999 -9999 -9999 -9999 -9999 -9999 -9999 -9999 -9999 -9999 -9999 -9999 -9999 -9999 -9999 -9999 -9999 -9999 -9999 -9999 -9999 -9999 -9999 -9999 -9999 -9999 -9999 -9999 -9999 -9999 -9999 -9999 -9999 -9999 -9999 -9999 -9999 -9999 -9999 -9999 -9999 -9999 -9999 -9999 -9999 -9999 -9999 -9999 -9999 -9999 -9999 -9999 -9999 -9999 -9999 -9999 -9999 -9999 -9999 -9999 -9999 -9999 -9999 -9999 -9999 -9999 -9999 -9999 -9999 -9999 -9999 -9999 -9999 -9999 -9999 -9999 -9999 -9999 -9999 -9999 -9999 -9999 -9999 -9999 -9999 -9999 -9999 -9999 -9999 -9999 -9999 -9999 -9999 -9999 -9999 -9999 -9999 -9999 -9999 -9999 -9999 -9999 -9999 -9999 -9999 -9999 -9999 -9999 -9999 -9999 -9999 -9999 -9999 -9999 -9999 -9999 -9999 -9999 -9999 -9999 -9999 -9999 -9999 -9999 -9999 -9999 -9999 -9999 -9999 -9999 -9999 -9999 -9999 -9999 -9999 -9999 -9999 -9999 -9999 -9999 -9999 -9999 -9999 -9999 -9999 -9999 -9999 -9999 -9999 -9999 -9999 -9999 -9999 -9999 398 380 368 344 358 355 371 372 351 344 360 360 361 379 380 368 377 367 375 366 360 340 340 335 332 320 348 375 395 386 392 415 412 405 393 396 391 381 366 367 370 369 367 359 359 374 369 379 382 378 366 359 340 338 350 371 370 360 347 342 340 335 328 320 341 349 339 357 357 353 333 310 298 303 297 296 310 309 309 332 331 326 333 318 326 325 307 304 313 312 298 311 316 314 317 309 298 291 292 298 297 298 295 284 283 284 279 284 282 281 279 271 268 257 257 254 249 249 256 254 253 247 247 250 242 242 234 237 239 252 244 220 218 217 231 214 212 231 235 226 227 227 217 226 227 226 225 217 225 243 252 248 239 229 225 222 227 224 216 206 213 219 224 237 225 236 222 217 218 220 203 224 236 245 237 241 240 249 248 245 236 238 236 227 231 244 245 236 228 223 212 233 229 211 218 220 229 215 230 242 248 245 246 236 233 238 252 260 267 274 279 264 260 268 260 238 226 224 212 203 224 225 210 215 232 224 231 234 243 240 240 231 226 221 218 209 207 203 215 220 218 231 235 228 223 219 226 239 247 249 243 245 251 251 247 231 213 206 205 208 196 181 194 203 215 221 230 237 237 232 227 223 217 207 218 220 213 203 209 205 204 202 195 192 191 192 194 191 201 204 173 176 178 168 168 175 178 179 178 174 174 169 165 162 157 152 142 133 136 143 158 170 137 136 136 145 146 166 182 174 171 180 178 178 171 152 174 166 166 147 113 137 113 85 90 84 72 81 84 70 76 82 88 82 -9999
-9999 -9999 -9999 -9999 -9999 -9999 -9999 -9999 -9999 -9999 -9999 -9999 -9999 -9999 -9999 -9999 -9999 -9999 -9999 -9999 -9999 -9999 -9999 -9999 -9999 -9999 -9999 -9999 -9999 -9999 -9999 -9999 -9999 -9999 -9999 -9999 -9999 -9999 -9999 -9999 -9999 -9999 -9999 -9999 -9999 -9999 -9999 -9999 -9999 -9999 -9999 -9999 -9999 -9999 -9999 -9999 -9999 -9999 -9999 -9999 -9999 -9999 -9999 -9999 -9999 -9999 -9999 -9999 -9999 -9999 -9999 -9999 -9999 -9999 -9999 -9999 -9999 -9999 -9999 -9999 -9999 -9999 -9999 -9999 -9999 -9999 -9999 -9999 -9999 -9999 -9999 -9999 -9999 -9999 -9999 -9999 -9999 -9999 -9999 -9999 -9999 -9999 -9999 -9999 -9999 -9999 -9999 -9999 -9999 -9999 -9999 -9999 -9999 -9999 -9999 -9999 -9999 -9999 -9999 -9999 -9999 -9999 -9999 -9999 -9999 -9999 -9999 -9999 -9999 -9999 -9999 -9999 -9999 -9999 -9999 -9999 -9999 -9999 -9999 -9999 -9999 -9999 -9999 -9999 -9999 -9999 -9999 -9999 -9999 -9999 -9999 -9999 -9999 -9999 -9999 -9999 -9999 -9999 -9999 -9999 -9999 -9999 -9999 -9999 -9999 -9999 -9999 -9999 -9999 859 721 559 428 407 397 404 404 394 386 374 367 367 361 361 344 376 364 342 342 344 357 381 358 373 367 351 356 361 359 344 333 329 321 324 335 359 381 384 387 400 395 387 380 381 380 381 379 377 361 356 359 353 351 355 367 386 373 360 356 348 332 332 332 337 345 345 338 340 328 321 331 315 337 332 334 337 330 335 328 330 323 308 313 303 294 282 285 308 320 312 320 312 317 310 308 291 303 309 289 300 309 305 315 311 312 301 301 288 281 276 282 282 270 264 264 271 280 281 282 284 276 264 265 260 267 265 270 268 263 252 241 233 229 237 244 256 264 259 234 228 236 240 238 228 218 219 216 218 216 219 215 211 221 233 222 219 231 239 250 252 239 232 227 222 213 221 224 216 204 209 222 221 223 221 212 220 210 205 202 213 230 232 243 246 254 253 248 238 229 231 222 234 241 240 242 234 218 214 214 229 215 211 210 215 216 226 240 244 241 231 234 234 245 248 256 265 276 290 283 272 256 254 259 239 227 219 207 199 203 206 205 219 230 218 222 230 240 245 236 232 232 229 233 224 208 197 209 207 221 225 233 228 213 225 232 239 242 247 253 248 244 246 234 234 222 197 188 203 199 185 204 210 214 222 231 232 234 233 226 224 217 205 212 213 210 204 200 207 210 202 199 199 194 196 198 203 203 185 180 188 178 167 173 173 182 178 172 171 170 168 164 162 156 157 154 147 132 146 170 160 136 125 129 140 148 153 176 164 172 182 184 178 178 172 164 163 138 115 158 144 91 81 87 88 70 76 85 69 76 88 86 -9999 -9999
-9999 -9999 -9999 -9999 -9999 -9999 -9999 -9999 -9999 -9999 -9999 -9999 -9999 -9999 -9999 -9999 -9999 -9999 -9999 -9999 -9999 -9999 -9999 -9999 -9999 -9999 -9999 -9999 -9999 -9999 -9999 -9999 -9999 -9999 -9999 -9999 -9999 -9999 -9999 -9999 -9999 -9999 -9999 -9999 -9999 -9999 -9999 -9999 -9999 -9999 -9999 -9999 -9999 -9999 -9999 -9999 -9999 -9999 -9999 -9999 -9999 -9999 -9999 -9999 -9999 -9999 -9999 -9999 -9999 -9999 -9999 -9999 -9999 -9999 -9999 -9999 -9999 -9999 -9999 -9999 -9999 -9999 -9999 -9999 -9999 -9999 -9999 -9999 -9999 -9999 -9999 -9999 -9999 -9999 -9999 -9999 -9999 -9999 -9999 -9999 -9999 -9999 -9999 -9999 -9999 -9999 -9999 -9999 -9999 -9999 -9999 -9999 -9999 -9999 -9999 -9999 -9999 -9999 -9999 -9999 -9999 -9999 -9999 -9999 -9999 -9999 -9999 -9999 -9999 -9999 -9999 -9999 -9999 -9999 -9999 -9999 -9999 -9999 -9999 -9999 -9999 -9999 -9999 -9999 -9999 -9999 -9999 -9999 -9999 -9999 -9999 -9999 -9999 -9999 -9999 -9999 -9999 -9999 -9999 -9999 -9999 759 858 882 691 491 603 854 791 634 583 497 429 398 383 372 377 379 384 380 376 353 362 379 365 336 372 377 342 324 365 366 358 357 341 348 349 355 344 322 318 327 334 350 370 388 374 379 383 393 400 390 389 385 376 372 367 366 365 365 360 359 362 348 364 381 376 376 370 360 344 336 320 316 333 330 326 335 330 322 310 322 327 323 328 313 324 332 319 315 322 314 320 316 312 295 299 313 298 299 306 306 308 301 292 294 307 310 295 295 304 297 305 302 315 311 309 303 301 286 279 275 285 281 274 261 263 266 273 277 282 273 277 276 269 263 261 262 254 252 246 238 259 264 265 269 264 244 225 246 243 249 239 237 238 233 232 236 228 218 218 216 206 222 224 213 225 240 246 247 238 234 226 217 217 209 206 206 200 204 218 211 212 209 217 228 227 223 229 226 215 224 230 240 246 245 242 249 234 218 223 237 241 236 240 237 231 219 207 220 209 214 220 214 230 235 236 240 230 242 251 245 252 258 266 276 277 300 302 287 267 250 255 247 226 219 218 213 201 192 213 225 228 218 224 228 236 242 239 241 244 241 236 224 215 214 203 206 216 220 230 223 219 226 232 237 241 251 254 240 236 227 216 218 217 196 182 190 180 185 189 195 206 219 228 230 226 226 226 219 212 205 212 208 207 203 199 203 206 204 195 198 202 205 200 202 208 209 190 176 169 170 180 180 185 177 177 172 170 168 170 171 161 152 153 155 138 134 149 136 131 123 140 144 146 143 164 150 165 171 169 165 166 169 151 151 154 143 156 118 93 87 80 87 71 73 85 70 76 83 -9999 -9999 -9999
-9999 -9999 -9999 -9999 -9999 -9999 -9999 -9999 -9999 -9999 -9999 -9999 -9999 -9999 -9999 -9999 -9999 -9999 -9999 -9999 -9999 -9999 -9999 -9999 -9999 -9999 -9999 -9999 -9999 -9999 -9999 -9999 -9999 -9999 -9999 -9999 -9999 -9999 -9999 -9999 -9999 -9999 -9999 -9999 -9999 -9999 -9999 -9999 -9999 -9999 -9999 -9999 -9999 -9999 -9999 -9999 -9999 -9999 -9999 -9999 -9999 -9999 -9999 -9999 -9999 -9999 -9999 -9999 -9999 -9999 -9999 -9999 -9999 -9999 -9999 -9999 -9999 -9999 -9999 -9999 -9999 -9999 -9999 -9999 -9999 -9999 -9999 -9999 -9999 -9999 -9999 -9999 -9999 -9999 -9999 -9999 -9999 -9999 -9999 -9999 -9999 -9999 -9999 -9999 -9999 -9999 -9999 -9999 -9999 -9999 -9999 -9999 -9999 -9999 -9999 -9999 -9999 -9999 -9999 -9999 -9999 -9999 -9999 -9999 -9999 -9999 -9999 -9999 -9999 -9999 -9999 -9999 -9999 -9999 -9999 -9999 -9999 -9999 -9999 -9999 -9999 -9999 -9999 -9999 -9999 -9999 -9999 -9999 -9999 -9999 -9999 -9999 -9999 481 458 517 600 693 683 711 761 790 798 812 586 460 680 785 613 531 458 424 408 392 388 359 357 361 369 359 347 357 360 343 366 374 348 345 352 334 349 355 371 343 347 343 332 343 322 324 337 358 378 384 379 382 366 377 385 406 429 422 409 395 389 383 375 375 365 357 368 361 352 341 352 365 360 356 366 356 345 343 331 313 323 319 322 334 334 323 327 310 310 305 304 309 326 328 315 302 298 295 296 294 283 278 278 271 277 297 309 314 295 294 288 288 300 313 307 298 297 291 286 292 311 307 311 300 292 285 286 288 284 285 284 277 264 256 261 277 275 278 275 274 265 261 253 251 251 244 238 251 262 275 271 270 249 237 238 252 258 255 254 249 243 240 237 234 238 233 220 209 208 215 217 220 234 236 229 234 242 237 233 223 212 224 217 208 220 207 207 216 210 200 212 225 223 220 231 240 237 233 240 245 247 235 228 239 225 219 238 235 228 231 241 238 230 220 208 220 231 238 233 223 224 225 227 239 245 251 257 254 256 263 286 269 259 278 272 267 248 256 250 244 227 203 198 203 191 185 208 226 227 214 212 224 232 222 230 232 240 241 233 228 223 223 221 210 205 215 230 216 214 228 237 233 240 245 249 238 233 217 205 210 216 207 184 181 186 186 201 200 211 215 225 221 217 223 218 218 213 202 198 200 202 203 199 195 200 200 193 199 198 194 196 203 202 192 179 173 175 184 191 183 176 181 173 175 167 157 156 159 154 149 148 148 136 135 142 134 130 129 132 135 143 166 171 148 149 161 164 158 148 155 167 164 154 141 145 98 88 85 88 79 71 72 87 71 -9999 -9999 -9999 -9999 -9999
-9999 -9999 -9999 -9999 -9999 -9999 -9999 -9999 -9999 -9999 -9999 -9999 -9999 -9999 -9999 -9999 -9999 -9999 -9999 -9999 -9999 -9999 -9999 -9999 -9999 -9999 -9999 -9999 -9999 -9999 -9999 -9999 -9999 -9999 -9999 -9999 -9999 -9999 -9999 -9999 -9999 -9999 -9999 -9999 -9999 -9999 -9999 -9999 -9999 -9999 -9999 -9999 -9999 -9999 -9999 -9999 -9999 -9999 -9999 -9999 -9999 -9999 -9999 -9999 -9999 -9999 -9999 -9999 -9999 -9999 -9999 -9999 -9999 -9999 -9999 -9999 -9999 -9999 -9999 -9999 -9999 -9999 -9999 -9999 -9999 -9999 -9999 -9999 -9999 -9999 -9999 -9999 -9999 -9999 -9999 -9999 -9999 -9999 -9999 -9999 -9999 -9999 -9999 -9999 -9999 -9999 -9999 -9999 -9999 -9999 -9999 -9999 -9999 -9999 -9999 -9999 -9999 -9999 -9999 -9999 -9999 -9999 -9999 -9999 -9999 -9999 -9999 -9999 -9999 -9999 -9999 -9999 -9999 -9999 -9999 -9999 -9999 -9999 -9999 -9999 -9999 -9999 -9999 -9999 -9999 562 598 648 584 504 496 493 472 467 536 637 735 893 890 851 858 752 808 770 630 476 496 578 521 465 434 419 410 400 389 388 377 352 346 358 379 385 366 365 358 339 321 343 365 335 322 340 352 363 353 337 326 333 321 350 370 376 385 375 362 359 365 375 374 376 387 382 382 371 365 362 358 368 367 353 350 344 343 336 334 344 345 345 350 361 347 333 330 315 308 309 315 333 340 336 341 334 318 291 290 304 310 309 299 287 288 287 281 275 274 282 288 280 280 304 310 302 300 286 281 298 310 305 311 310 301 299 295 282 299 310 305 297 294 289 287 281 277 277 267 265 268 269 252 266 263 272 261 271 266 261 262 254 266 253 250 269 264 276 272 254 241 249 253 259 261 255 254 248 247 242 240 232 229 228 217 217 210 213 207 214 221 218 225 235 229 225 234 233 228 229 221 216 204 221 236 244 230 209 224 237 229 227 237 240 245 250 244 242 238 248 234 228 225 229 237 226 231 236 236 227 221 212 214 234 238 244 238 244 244 244 242 241 246 252 263 265 270 255 256 249 256 249 244 251 241 249 230 219 209 188 167 178 170 195 210 216 226 219 205 212 220 212 213 220 229 233 233 237 237 230 221 210 201 199 214 208 212 246 241 237 240 237 234 228 231 227 215 203 205 194 183 181 190 202 219 224 228 224 226 221 216 215 210 213 207 208 199 195 193 205 194 196 202 198 192 198 195 191 200 200 191 186 186 182 191 188 182 185 168 176 174 169 173 175 166 158 149 150 145 143 148 156 148 167 131 126 126 151 146 162 166 153 136 162 159 154 136 151 164 159 132 118 102 86 81 76 87 86 76 68 -9999 -9999 -9999 -9999 -9999 -9999 -9999
-9999 -9999 -9999 -9999 -9999 -9999 -9999 -9999 -9999 -9999 -9999 -9999 -9999 -9999 -9999 -9999 -9999 -9999 -9999 -9999 -9999 -9999 -9999 -9999 -9999 -9999 -9999 -9999 -9999 -9999 -9999 -9999 -9999 -9999 -9999 -9999 -9999 -9999 -9999 -9999 -9999 -9999 -9999 -9999 -9999 -9999 -9999 -9999 -9999 -9999 -9999 -9999 -9999 -9999 -9999 -9999 -9999 -9999 -9999 -9999 -9999 -9999 -9999 -9999 -9999 -9999 -9999 -9999 -9999 -9999 -9999 -9999 -9999 -9999 -9999 -9999 -9999 -9999 -9999 -9999 -9999 -9999 -9999 -9999 -9999 -9999 -9999 -9999 -9999 -9999 -9999 -9999 -9999 -9999 -9999 -9999 -9999 -9999 -9999 -9999 -9999 -9999 -9999 -9999 -9999 -9999 -9999 -9999 -9999 -9999 -9999 -9999 -9999 -9999 -9999 -9999 -9999 -9999 -9999 -9999 -9999 -9999 -9999 -9999 -9999 -9999 -9999 -9999 -9999 -9999 -9999 -9999 -9999 -9999 -9999 -9999 -9999 -9999 -9999 -9999 -9999 -9999 672 682 668 550 532 541 481 470 495 485 455 453 579 807 933 973 805 723 703 716 755 615 515 472 450 446 447 436 422 420 396 379 398 403 401 377 383 391 399 382 379 379 357 346 339 340 366 342 318 319 344 348 342 338 324 331 330 357 365 367 369 350 365 373 373 368 367 360 374 364 363 364 349 346 359 360 359 362 364 363 357 351 328 340 346 340 331 342 338 328 319 319 301 307 326 333 342 341 329 320 310 303 287 291 289 288 288 303 306 302 312 300 301 293 300 281 271 293 292 282 284 279 294 303 302 294 301 310 309 297 295 280 280 283 289 286 298 302 299 292 292 287 288 275 271 260 257 250 250 259 254 266 272 274 273 270 267 261 266 275 269 272 261 252 255 261 265 265 266 260 256 258 248 239 237 235 232 227 227 223 231 232 229 228 213 214 225 223 215 219 228 238 223 218 215 216 211 202 228 245 251 235 244 243 236 234 237 249 249 242 239 235 231 243 237 224 218 225 224 223 232 238 233 224 219 210 217 230 237 235 236 244 251 258 260 253 253 262 261 259 268 257 245 239 246 229 215 228 242 232 219 201 185 162 172 197 184 198 203 210 224 225 214 202 207 196 204 212 225 219 222 235 240 231 223 217 216 203 203 217 204 221 225 230 240 227 216 223 225 225 209 191 201 191 184 185 198 227 228 234 219 212 219 225 223 220 221 215 204 202 206 204 196 193 190 190 194 195 184 189 189 194 200 199 191 189 196 195 205 200 191 178 176 169 169 172 161 158 156 163 155 157 156 150 156 155 153 156 153 141 125 138 144 148 153 149 139 159 146 134 129 142 149 143 138 109 86 -9999 -9999 -9999 -9999 -9999 -9999 -9999 -9999 -9999 -9999 -9999 -9999 -9999 -9999
-9999 -9999 -9999 -9999 -9999 -9999 -9999 -9999 -9999 -9999 -9999 -9999 -9999 -9999 -9999 -9999 -9999 -9999 -9999 -9999 -9999 -9999 -9999 -9999 -9999 -9999 -9999 -9999 -9999 -9999 -9999 -9999 -9999 -9999 -9999 -9999 -9999 -9999 -9999 -9999 -9999 -9999 -9999 -9999 -9999 -9999 -9999 -9999 -9999 -9999 -9999 -9999 -9999 -9999 -9999 -9999 -9999 -9999 -9999 -9999 -9999 -9999 -9999 -9999 -9999 -9999 -9999 -9999 -9999 -9999 -9999 -9999 -9999 -9999 -9999 -9999 -9999 -9999 -9999 -9999 -9999 -9999 -9999 -9999 -9999 -9999 -9999 -9999 -9999 -9999 -9999 -9999 -9999 -9999 -9999 -9999 -9999 -9999 -9999 -9999 -9999 -9999 -9999 -9999 -9999 -9999 -9999 -9999 -9999 -9999 -9999 -9999 -9999 -9999 -9999 -9999 -9999 -9999 -9999 -9999 -9999 -9999 -9999 -9999 -9999 -9999 -9999 -9999 -9999 -9999 -9999 -9999 -9999 -9999 -9999 -9999 -9999 -9999 -9999 -9999 -9999 699 635 573 561 561 577 524 532 455 461 474 460 464 550 741 1004 1002 836 743 635 684 737 598 539 479 411 396 424 410 407 418 402 398 393 390 389 393 379 382 396 397 377 363 355 370 367 346 330 353 342 317 327 346 344 338 331 346 368 365 354 363 340 350 373 380 364 348 350 346 356 356 352 346 341 345 354 361 343 347 360 364 356 348 337 326 342 342 319 323 319 321 313 309 296 313 310 290 301 308 293 294 289 297 310 306 303 298 314 327 322 310 321 306 295 295 288 280 273 270 290 283 297 296 296 306 295 290 295 304 313 310 305 296 290 281 272 278 279 285 284 295 293 288 265 270 266 271 265 252 253 248 247 253 259 273 278 269 269 265 269 272 268 272 271 266 267 263 259 261 258 251 242 253 242 233 225 223 220 220 223 219 225 222 228 227 229 212 207 214 206 222 231 239 231 227 213 210 211 213 238 245 243 235 250 253 250 251 251 252 245 237 230 225 231 232 233 223 212 213 222 226 230 230 243 238 215 213 227 236 231 227 233 240 249 249 251 267 276 262 248 255 256 250 245 232 228 213 194 205 206 199 195 190 174 164 183 202 205 207 202 212 212 213 217 206 188 191 205 214 211 215 219 223 227 235 231 227 230 221 214 196 207 215 226 236 232 223 212 220 212 220 207 204 184 184 194 197 199 206 216 199 203 202 209 219 219 223 221 212 207 200 197 199 199 188 186 184 191 186 187 196 195 202 200 197 191 192 200 211 209 185 178 181 186 172 161 161 171 173 163 171 171 162 157 156 151 155 152 144 143 143 127 125 149 134 139 142 168 160 -9999 -9999 -9999 -9999 -9999 -9999 -9999 -9999 -9999 -9999 -9999 -9999 -9999 -9999 -9999 -9999 -9999 -9999 -9999 -9999 -9999 -9999 -9999
-9999 -9999 -9999 -9999 -9999 -9999 -9999 -9999 -9999 -9999 -9999 -9999 -9999 -9999 -9999 -9999 -9999 -9999 -9999 -9999 -9999 -9999 -9999 -9999 -9999 -9999 -9999 -9999 -9999 -9999 -9999 -9999 -9999 -9999 -9999 -9999 -9999 -9999 -9999 -9999 -9999 -9999 -9999 -9999 -9999 -9999 -9999 -9999 -9999 -9999 -9999 -9999 -9999 -9999 -9999 -9999 -9999 -9999 -9999 -9999 -9999 -9999 -9999 -9999 -9999 -9999 -9999 -9999 -9999 -9999 -9999 -9999 -9999 -9999 -9999 -9999 -9999 -9999 -9999 -9999 -9999 -9999 -9999 -9999 -9999 -9999 -9999 -9999 -9999 -9999 -9999 -9999 -9999 -9999 -9999 -9999 -9999 -9999 -9999 -9999 -9999 -9999 -9999 -9999 -9999 -9999 -9999 -9999 -9999 -9999 -9999 -9999 -9999 -9999 -9999 -9999 -9999 -9999 -9999 -9999 -9999 -9999 -9999 -9999 -9999 -9999 -9999 -9999 -9999 -9999 -9999 -9999 -9999 -9999 -9999 -9999 -9999 -9999 -9999 671 648 659 661 638 666 643 629 610 541 478 436 435 444 477 551 678 929 915 751 653 642 600 582 564 511 440 416 403 381 373 393 392 403 398 386 384 373 370 369 365 388 374 383 390 386 385 373 337 314 328 346 342 317 318 342 357 339 337 350 349 341 347 336 356 360 369 363 345 332 340 349 361 351 345 331 346 350 360 346 335 341 347 354 362 345 320 326 325 313 304 305 315 301 293 291 293 292 301 300 306 313 307 307 323 321 314 323 316 327 331 321 322 320 310 311 310 301 280 275 270 286 293 303 306 309 303 297 283 294 305 306 303 306 302 294 294 294 297 288 273 276 292 293 287 287 278 280 275 261 272 270 253 254 247 248 263 259 258 260 254 259 264 266 265 264 258 260 252 246 253 253 249 234 242 241 232 223 220 209 218 223 225 217 213 208 215 220 208 211 203 197 216 220 229 229 230 223 209 206 233 228 229 226 223 240 251 248 242 247 246 237 235 231 219 223 217 226 231 219 208 215 226 230 235 242 233 210 214 233 234 221 225 238 249 251 254 260 266 259 245 244 245 252 250 252 239 214 201 192 193 196 197 195 195 172 172 189 198 198 212 188 196 199 208 214 201 191 187 207 202 210 224 217 217 223 227 223 237 226 216 207 197 192 214 233 226 218 213 208 210 203 219 235 207 191 186 203 185 182 187 198 205 215 217 219 215 211 210 218 217 207 199 204 201 199 196 201 187 183 175 188 201 203 189 188 193 197 201 199 206 193 180 179 177 176 165 168 180 193 179 169 172 164 160 158 152 145 148 151 169 173 -9999 -9999 -9999 -9999 -9999 -9999 -9999 -9999 -9999 -9999 -9999 -9999 -9999 -9999 -9999 -9999 -9999 -9999 -9999 -9999 -9999 -9999 -9999 -9999 -9999 -9999 -9999 -9999 -9999 -9999 -9999 -9999
-9999 -9999 -9999 -9999 -9999 -9999 -9999 -9999 -9999 -9999 -9999 -9999 -9999 -9999 -9999 -9999 -9999 -9999 -9999 -9999 -9999 -9999 -9999 -9999 -9999 -9999 -9999 -9999 -9999 -9999 -9999 -9999 -9999 -9999 -9999 -9999 -9999 -9999 -9999 -9999 -9999 -9999 -9999 -9999 -9999 -9999 -9999 -9999 -9999 -9999 -9999 -9999 -9999 -9999 -9999 -9999 -9999 -9999 -9999 -9999 -9999 -9999 -9999 -9999 -9999 -9999 -9999 -9999 -9999 -9999 -9999 -9999 -9999 -9999 -9999 -9999 -9999 -9999 -9999 -9999 -9999 -9999 -9999 -9999 -9999 -9999 -9999 -9999 -9999 -9999 -9999 -9999 -9999 -9999 -9999 -9999 -9999 -9999 -9999 -9999 -9999 -9999 -9999 -9999 -9999 -9999 -9999 -9999 -9999 -9999 -9999 -9999 -9999 -9999 -9999 -9999 -9999 -9999 -9999 -9999 -9999 -9999 -9999 -9999 -9999 -9999 -9999 -9999 -9999 -9999 -9999 -9999 -9999 -9999 -9999 -9999 -9999 940 724 769 792 732 745 713 857 869 781 621 533 473 442 450 480 463 535 652 854 751 654 583 537 552 553 497 471 464 450 426 411 387 370 379 386 408 397 387 390 391 374 365 354 357 377 387 387 365 346 345 353 335 312 339 330 330 325 333 344 334 324 321 320 327 321 337 337 338 346 343 336 339 350 350 345 345 341 329 321 323 321 318 312 316 328 341 336 325 317 313 315 307 296 299 293 302 311 309 315 314 312 331 316 327 327 334 324 322 330 336 328 318 317 311 313 318 314 305 289 298 302 279 272 295 295 296 296 297 288 284 296 293 299 296 293 301 309 306 305 303 292 281 270 280 288 282 289 286 276 275 275 272 264 263 267 255 248 243 240 246 255 244 244 258 260 254 252 249 255 247 239 243 244 245 236 227 233 231 227 221 231 240 239 233 226 215 215 215 210 212 202 206 205 209 212 214 215 223 228 216 204 228 219 212 221 235 248 246 235 235 239 236 233 231 233 226 216 213 218 225 219 207 218 231 236 243 234 218 201 209 232 227 218 232 240 254 258 257 259 258 251 249 241 236 243 235 233 230 212 202 199 182 176 190 187 199 176 162 187 183 203 200 186 185 211 215 223 196 180 196 194 190 209 203 202 198 209 210 226 233 229 221 219 227 191 215 233 225 219 201 206 202 210 239 232 203 179 174 178 174 188 189 196 204 218 227 219 209 200 202 216 216 205 209 214 207 200 206 194 194 183 173 187 195 193 184 187 191 197 198 190 195 189 189 180 179 174 175 185 186 192 185 170 160 157 -9999 -9999 -9999 -9999 -9999 -9999 -9999 -9999 -9999 -9999 -9999 -9999 -9999 -9999 -9999 -9999 -9999 -9999 -9999 -9999 -9999 -9999 -9999 -9999 -9999 -9999 -9999 -9999 -9999 -9999 -9999 -9999 -9999 -9999 -9999 -9999 -9999 -9999 -9999 -9999
-9999 -9999 -9999 -9999 -9999 -9999 -9999 -9999 -9999 -9999 -9999 -9999 -9999 -9999 -9999 -9999 -9999 -9999 -9999 -9999 -9999 -9999 -9999 -9999 -9999 -9999 -9999 -9999 -9999 -9999 -9999 -9999 -9999 -9999 -9999 -9999 -9999 -9999 -9999 -9999 -9999 -9999 -9999 -9999 -9999 -9999 -9999 -9999 -9999 -9999 -9999 -9999 -9999 -9999 -9999 -9999 -9999 -9999 -9999 -9999 -9999 -9999 -9999 -9999 -9999 -9999 -9999 -9999 -9999 -9999 -9999 -9999 -9999 -9999 -9999 -9999 -9999 -9999 -9999 -9999 -9999 -9999 -9999 -9999 -9999 -9999 -9999 -9999 -9999 -9999 -9999 -9999 -9999 -9999 -9999 -9999 -9999 -9999 -9999 -9999 -9999 -9999 -9999 -9999 -9999 -9999 -9999 -9999 -9999 -9999 -9999 -9999 -9999 -9999 -9999 -9999 -9999 -9999 -9999 -9999 -9999 -9999 -9999 -9999 -9999 -9999 -9999 -9999 -9999 -9999 -9999 -9999 -9999 -9999 -9999 -9999 1008 819 760 883 806 849 906 939 1005 861 736 628 530 475 508 576 550 443 526 678 649 577 538 513 478 466 443 446 457 446 450 433 417 402 394 374 379 395 404 402 393 387 385 371 363 357 366 389 394 371 362 359 352 334 312 315 337 351 339 321 331 318 328 350 345 332 333 334 331 320 323 316 312 312 314 315 318 322 319 320 314 316 317 323 321 311 326 326 319 334 334 345 336 316 320 313 292 315 318 324 318 319 326 337 322 321 329 341 331 336 341 337 325 313 304 304 296 305 310 304 306 313 307 296 287 267 275 287 286 289 296 281 281 290 290 281 285 295 307 302 297 293 297 290 270 265 272 270 284 278 285 286 277 277 281 279 279 270 269 260 241 236 237 231 235 247 248 249 245 238 247 240 235 234 235 231 224 228 222 222 223 234 238 242 230 221 219 226 231 224 223 219 204 206 207 222 215 206 200 200 216 220 213 208 207 216 223 220 237 244 235 225 232 227 234 221 223 228 228 209 219 226 212 207 221 228 233 234 230 214 198 215 230 220 219 228 236 255 259 247 252 253 249 247 241 238 233 220 216 210 211 197 180 186 190 183 172 182 193 163 172 176 196 190 176 181 195 208 207 188 172 183 190 217 215 210 201 198 199 216 228 221 228 228 221 214 185 214 227 229 216 209 196 211 234 240 206 205 188 164 164 177 188 202 203 211 221 212 213 214 201 195 204 209 219 221 221 209 212 211 204 193 182 173 181 188 185 180 185 191 195 196 191 191 195 193 185 189 -9999 -9999 -9999 -9999 -9999 -9999 -9999 -9999 -9999 -9999 -9999 -9999 -9999 -9999 -9999 -9999 -9999 -9999 -9999 -9999 -9999 -9999 -9999 -9999 -9999 -9999 -9999 -9999 -9999 -9999 -9999 -9999 -9999 -9999 -9999 -9999 -9999 -9999 -9999 -9999 -9999 -9999 -9999 -9999 -9999 -9999 -9999 -9999 -9999
-9999 -9999 -9999 -9999 -9999 -9999 -9999 -9999 -9999 -9999 -9999 -9999 -9999 -9999 -9999 -9999 -9999 -9999 -9999 -9999 -9999 -9999 -9999 -9999 -9999 -9999 -9999 -9999 -9999 -9999 -9999 -9999 -9999 -9999 -9999 -9999 -9999 -9999 -9999 -9999 -9999 -9999 -9999 -9999 -9999 -9999 -9999 -9999 -9999 -9999 -9999 -9999 -9999 -9999 -9999 -9999 -9999 -9999 -9999 -9999 -9999 -9999 -9999 -9999 -9999 -9999 -9999 -9999 -9999 -9999 -9999 -9999 -9999 -9999 -9999 -9999 -9999 -9999 -9999 -9999 -9999 -9999 -9999 -9999 -9999 -9999 -9999 -9999 -9999 -9999 -9999 -9999 -9999 -9999 -9999 -9999 -9999 -9999 -9999 -9999 -9999 -9999 -9999 -9999 -9999 -9999 -9999 -9999 -9999 -9999 -9999 -9999 -9999 -9999 -9999 -9999 -9999 -9999 -9999 -9999 -9999 -9999 -9999 -9999 -9999 -9999 -9999 -9999 -9999 -9999 -9999 -9999 -9999 -9999 1005 1024 1021 924 890 959 868 797 814 909 925 809 666 557 508 495 541 615 511 432 513 522 484 481 473 476 435 438 428 420 434 420 428 424 407 396 400 386 369 387 391 382 394 405 382 377 384 357 375 370 379 366 348 346 336 331 329 314 325 332 347 332 353 370 355 359 359 356 345 343 334 346 342 336 336 326 328 353 359 354 331 346 331 343 342 339 333 320 308 305 303 305 331 333 331 328 314 306 295 310 327 336 322 331 340 338 321 331 336 342 341 334 333 322 315 318 312 295 281 293 298 303 310 310 298 288 282 271 261 265 271 285 294 295 275 276 284 274 284 302 309 306 297 287 293 289 277 272 259 259 267 270 273 278 287 278 279 272 275 268 260 253 251 247 254 249 243 244 235 237 231 231 230 233 227 223 219 224 229 226 238 231 232 231 220 222 221 226 237 223 237 224 231 225 222 226 226 228 228 221 208 199 205 212 218 224 202 219 238 240 236 245 234 226 224 225 222 228 217 231 227 211 214 219 205 206 218 223 230 234 230 216 203 214 225 210 220 228 243 254 245 249 248 251 250 247 245 240 239 241 231 225 210 194 212 194 208 195 179 167 172 158 155 179 194 195 174 173 188 204 215 178 172 193 244 234 210 209 196 197 195 215 219 216 216 220 213 197 198 230 224 209 206 210 193 200 219 212 197 182 175 168 183 191 189 192 200 199 193 197 209 211 205 191 186 198 206 217 217 214 208 202 203 188 186 182 180 183 177 183 186 185 -9999 -9999 -9999 -9999 -9999 -9999 -9999 -9999 -9999 -9999 -9999 -9999 -9999 -9999 -9999 -9999 -9999 -9999 -9999 -9999 -9999 -9999 -9999 -9999 -9999 -9999 -9999 -9999 -9999 -9999 -9999 -9999 -9999 -9999 -9999 -9999 -9999 -9999 -9999 -9999 -9999 -9999 -9999 -9999 -9999 -9999 -9999 -9999 -9999 -9999 -9999 -9999 -9999 -9999 -9999 -9999 -9999
-9999 -9999 -9999 -9999 -9999 -9999 -9999 -9999 -9999 -9999 -9999 -9999 -9999 -9999 -9999 -9999 -9999 -9999 -9999 -9999 -9999 -9999 -9999 -9999 -9999 -9999 -9999 -9999 -9999 -9999 -9999 -9999 -9999 -9999 -9999 -9999 -9999 -9999 -9999 -9999 -9999 -9999 -9999 -9999 -9999 -9999 -9999 -9999 -9999 -9999 -9999 -9999 -9999 -9999 -9999 -9999 -9999 -9999 -9999 -9999 -9999 -9999 -9999 -9999 -9999 -9999 -9999 -9999 -9999 -9999 -9999 -9999 -9999 -9999 -9999 -9999 -9999 -9999 -9999 -9999 -9999 -9999 -9999 -9999 -9999 -9999 -9999 -9999 -9999 -9999 -9999 -9999 -9999 -9999 -9999 -9999 -9999 -9999 -9999 -9999 -9999 -9999 -9999 -9999 -9999 -9999 -9999 -9999 -9999 -9999 -9999 -9999 -9999 -9999 -9999 -9999 -9999 -9999 -9999 -9999 -9999 -9999 -9999 -9999 -9999 -9999 -9999 -9999 -9999 -9999 -9999 -9999 -9999 1006 1060 896 899 830 922 854 743 697 682 757 824 761 639 588 506 523 512 565 548 464 436 461 444 428 430 431 420 419 399 383 401 413 402 409 403 389 382 381 371 372 374 377 392 376 354 348 365 383 357 353 353 358 362 354 339 319 313 335 358 358 351 334 335 346 353 362 363 369 363 359 353 358 340 358 352 339 362 375 364 347 357 354 339 357 356 344 352 344 339 327 321 310 300 307 306 302 308 308 305 326 341 335 325 338 343 328 326 335 345 336 334 337 316 312 307 301 304 298 283 291 295 288 295 307 305 295 287 270 273 268 264 272 281 285 277 265 272 274 291 294 293 292 298 289 281 282 288 286 281 268 255 263 266 281 277 270 263 268 270 268 268 266 260 264 270 260 259 257 256 248 246 238 231 230 236 240 238 241 240 241 239 232 224 213 219 223 234 244 248 247 228 232 229 221 217 216 215 205 209 207 208 205 214 211 205 214 204 225 231 239 245 244 236 224 220 210 211 222 214 223 223 209 205 214 206 213 218 226 228 233 227 216 199 208 208 216 233 237 257 244 258 270 264 270 287 243 238 237 236 229 227 221 207 201 225 210 206 217 206 185 162 158 163 184 192 221 211 174 193 197 179 202 249 212 219 206 196 195 180 179 191 200 197 209 205 203 201 203 189 200 200 205 196 192 193 197 210 205 194 179 167 177 174 180 181 193 198 184 190 194 200 199 197 189 186 200 206 211 199 202 199 197 207 194 202 -9999 -9999 -9999 -9999 -9999 -9999 -9999 -9999 -9999 -9999 -9999 -9999 -9999 -9999 -9999 -9999 -9999 -9999 -9999 -9999 -9999 -9999 -9999 -9999 -9999 -9999 -9999 -9999 -9999 -9999 -9999 -9999 -9999 -9999 -9999 -9999 -9999 -9999 -9999 -9999 -9999 -9999 -9999 -9999 -9999 -9999 -9999 -9999 -9999 -9999 -9999 -9999 -9999 -9999 -9999 -9999 -9999 -9999 -9999 -9999 -9999 -9999 -9999 -9999
-9999 -9999 -9999 -9999 -9999 -9999 -9999 -9999 -9999 -9999 -9999 -9999 -9999 -9999 -9999 -9999 -9999 -9999 -9999 -9999 -9999 -9999 -9999 -9999 -9999 -9999 -9999 -9999 -9999 -9999 -9999 -9999 -9999 -9999 -9999 -9999 -9999 -9999 -9999 -9999 -9999 -9999 -9999 -9999 -9999 -9999 -9999 -9999 -9999 -9999 -9999 -9999 -9999 -9999 -9999 -9999 -9999 -9999 -9999 -9999 -9999 -9999 -9999 -9999 -9999 -9999 -9999 -9999 -9999 -9999 -9999 -9999 -9999 -9999 -9999 -9999 -9999 -9999 -9999 -9999 -9999 -9999 -9999 -9999 -9999 -9999 -9999 -9999 -9999 -9999 -9999 -9999 -9999 -9999 -9999 -9999 -9999 -9999 -9999 -9999 -9999 -9999 -9999 -9999 -9999 -9999 -9999 -9999 -9999 -9999 -9999 -9999 -9999 -9999 -9999 -9999 -9999 -9999 -9999 -9999 -9999 -9999 -9999 -9999 -9999 -9999 -9999 -9999 -9999 -9999 -9999 1040 1066 1010 921 892 733 770 784 759 757 694 639 639 657 688 554 496 526 499 492 558 527 464 406 436 455 418 406 399 393 377 394 376 376 384 400 394 389 389 375 374 381 374 371 380 385 377 365 330 342 354 354 363 340 330 343 343 337 313 323 351 364 350 350 340 332 356 358 372 390 386 376 358 363 348 356 359 365 348 357 374 369 355 372 376 351 362 356 353 341 326 334 331 315 310 307 313 312 304 317 319 336 342 349 340 336 337 346 335 342 341 335 332 320 333 327 312 297 286 295 295 277 289 298 281 299 299 292 283 293 289 278 260 251 261 272 272 283 266 278 282 281 292 281 281 293 287 290 279 272 270 269 274 270 263 260 260 258 257 255 263 258 255 260 261 261 268 259 256 255 264 263 253 248 245 249 243 245 249 243 240 232 237 232 220 227 224 236 237 247 245 239 230 221 219 221 220 214 205 211 225 223 218 226 226 222 220 217 198 209 221 227 228 236 235 231 232 223 225 219 210 202 213 214 206 199 205 207 218 219 226 228 229 220 212 196 216 219 226 239 256 247 239 283 294 286 282 315 276 240 236 237 229 230 228 206 204 233 226 213 228 207 189 184 178 158 168 184 195 271 206 161 172 172 209 224 259 296 217 192 194 178 196 206 207 217 212 214 207 210 205 214 205 210 184 178 188 185 172 181 175 182 168 165 167 172 179 179 187 181 178 186 190 192 199 195 186 181 188 188 -9999 -9999 -9999 -9999 -9999 -9999 -9999 -9999 -9999 -9999 -9999 -9999 -9999 -9999 -9999 -9999 -9999 -9999 -9999 -9999 -9999 -9999 -9999 -9999 -9999 -9999 -9999 -9999 -9999 -9999 -9999 -9999 -9999 -9999 -9999 -9999 -9999 -9999 -9999 -9999 -9999 -9999 -9999 -9999 -9999 -9999 -9999 -9999 -9999 -9999 -9999 -9999 -9999 -9999 -9999 -9999 -9999 -9999 -9999 -9999 -9999 -9999 -9999 -9999 -9999 -9999 -9999 -9999 -9999 -9999 -9999 -9999
-9999 -9999 -9999 -9999 -9999 -9999 -9999 -9999 -9999 -9999 -9999 -9999 -9999 -9999 -9999 -9999 -9999 -9999 -9999 -9999 -9999 -9999 -9999 -9999 -9999 -9999 -9999 -9999 -9999 -9999 -9999 -9999 -9999 -9999 -9999 -9999 -9999 -9999 -9999 -9999 -9999 -9999 -9999 -9999 -9999 -9999 -9999 -9999 -9999 -9999 -9999 -9999 -9999 -9999 -9999 -9999 -9999 -9999 -9999 -9999 -9999 -9999 -9999 -9999 -9999 -9999 -9999 -9999 -9999 -9999 -9999 -9999 -9999 -9999 -9999 -9999 -9999 -9999 -9999 -9999 -9999 -9999 -9999 -9999 -9999 -9999 -9999 -9999 -9999 -9999 -9999 -9999 -9999 -9999 -9999 -9999 -9999 -9999 -9999 -9999 -9999 -9999 -9999 -9999 -9999 -9999 -9999 -9999 -9999 -9999 -9999 -9999 -9999 -9999 -9999 -9999 -9999 -9999 -9999 -9999 -9999 -9999 -9999 -9999 -9999 -9999 -9999 -9999 -9999 -9999 1127 1147 1116 931 782 728 667 675 670 649 679 760 689 545 561 601 551 468 470 480 551 584 474 409 394 410 441 425 395 372 373 373 382 384 390 372 390 389 392 377 373 371 370 372 367 371 371 357 339 334 366 337 336 339 347 331 328 321 325 316 333 352 359 348 341 327 340 350 368 379 391 382 368 361 353 355 365 375 378 358 372 372 363 361 370 383 375 365 349 336 338 335 321 318 315 314 321 337 351 348 340 322 326 333 344 352 346 344 351 346 345 335 324 322 318 314 316 312 299 289 284 286 272 275 279 274 281 272 271 272 283 284 274 272 255 245 252 270 284 268 268 288 296 284 275 283 283 280 282 282 282 278 276 275 268 282 279 258 264 247 256 242 241 243 249 253 254 251 253 249 246 247 245 246 242 251 243 244 245 243 239 221 218 226 224 223 233 251 247 246 243 234 225 218 222 215 211 212 205 223 231 235 229 223 215 214 211 209 213 200 210 215 214 220 228 231 217 237 238 232 226 223 206 209 209 198 200 208 209 213 220 223 218 226 216 200 203 224 222 237 246 258 236 242 281 278 289 297 312 280 252 236 231 231 222 215 211 217 234 246 231 227 207 188 187 175 164 152 156 176 185 173 158 156 173 189 215 219 211 190 178 182 172 191 200 205 220 217 223 218 216 220 228 211 203 188 190 172 165 170 164 156 163 157 163 159 168 173 174 172 169 175 182 183 -9999 -9999 -9999 -9999 -9999 -9999 -9999 -9999 -9999 -9999 -9999 -9999 -9999 -9999 -9999 -9999 -9999 -9999 -9999 -9999 -9999 -9999 -9999 -9999 -9999 -9999 -9999 -9999 -9999 -9999 -9999 -9999 -9999 -9999 -9999 -9999 -9999 -9999 -9999 -9999 -9999 -9999 -9999 -9999 -9999 -9999 -9999 -9999 -9999 -9999 -9999 -9999 -9999 -9999 -9999 -9999 -9999 -9999 -9999 -9999 -9999 -9999 -9999 -9999 -9999 -9999 -9999 -9999 -9999 -9999 -9999 -9999 -9999 -9999 -9999 -9999 -9999 -9999 -9999
-9999 -9999 -9999 -9999 -9999 -9999 -9999 -9999 -9999 -9999 -9999 -9999 -9999 -9999 -9999 -9999 -9999 -9999 -9999 -9999 -9999 -9999 -9999 -9999 -9999 -9999 -9999 -9999 -9999 -9999 -9999 -9999 -9999 -9999 -9999 -9999 -9999 -9999 -9999 -9999 -9999 -9999 -9999 -9999 -9999 -9999 -9999 -9999 -9999 -9999 -9999 -9999 -9999 -9999 -9999 -9999 -9999 -9999 -9999 -9999 -9999 -9999 -9999 -9999 -9999 -9999 -9999 -9999 -9999 -9999 -9999 -9999 -9999 -9999 -9999 -9999 -9999 -9999 -9999 -9999 -9999 -9999 -9999 -9999 -9999 -9999 -9999 -9999 -9999 -9999 -9999 -9999 -9999 -9999 -9999 -9999 -9999 -9999 -9999 -9999 -9999 -9999 -9999 -9999 -9999 -9999 -9999 -9999 -9999 -9999 -9999 -9999 -9999 -9999 -9999 -9999 -9999 -9999 -9999 -9999 -9999 -9999 -9999 -9999 -9999 -9999 -9999 -9999 1098 1091 1179 1249 1124 913 809 705 653 615 588 560 569 591 565 521 488 519 523 476 471 481 558 461 420 423 428 432 404 409 383 388 381 396 411 403 379 372 371 371 365 372 389 373 369 364 349 339 369 336 352 365 370 348 344 327 320 330 342 322 317 320 350 364 348 337 339 330 342 357 383 388 405 385 371 370 369 362 377 389 374 368 372 383 373 380 386 404 388 358 342 352 349 334 324 321 320 336 336 342 344 342 331 330 337 347 345 358 356 351 351 340 331 328 327 319 310 303 296 299 301 292 286 273 280 294 285 277 266 258 254 267 274 283 285 286 279 272 248 254 278 280 265 267 277 281 283 282 273 274 268 273 287 289 291 283 278 281 267 266 277 270 261 257 255 243 233 235 236 231 234 242 240 231 239 237 235 238 233 226 228 226 221 226 232 243 241 234 248 289 252 248 242 232 230 227 218 211 203 206 217 229 243 242 228 226 234 232 227 218 223 217 202 204 203 210 221 222 212 221 220 228 221 217 202 201 203 201 198 202 205 213 222 213 220 227 216 194 213 226 235 245 250 240 233 261 256 248 261 271 268 265 239 252 236 231 240 227 235 230 249 243 249 237 204 193 170 163 163 152 164 172 175 166 156 174 172 181 200 190 188 176 172 181 214 252 216 232 223 238 235 235 224 234 212 202 190 198 210 198 174 180 177 166 151 149 158 152 -9999 -9999 -9999 -9999 -9999 -9999 -9999 -9999 -9999 -9999 -9999 -9999 -9999 -9999 -9999 -9999 -9999 -9999 -9999 -9999 -9999 -9999 -9999 -9999 -9999 -9999 -9999 -9999 -9999 -9999 -9999 -9999 -9999 -9999 -9999 -9999 -9999 -9999 -9999 -9999 -9999 -9999 -9999 -9999 -9999 -9999 -9999 -9999 -9999 -9999 -9999 -9999 -9999 -9999 -9999 -9999 -9999 -9999 -9999 -9999 -9999 -9999 -9999 -9999 -9999 -9999 -9999 -9999 -9999 -9999 -9999 -9999 -9999 -9999 -9999 -9999 -9999 -9999 -9999 -9999 -9999 -9999 -9999 -9999 -9999 -9999 -9999
-9999 -9999 -9999 -9999 -9999 -9999 -9999 -9999 -9999 -9999 -9999 -9999 -9999 -9999 -9999 -9999 -9999 -9999 -9999 -9999 -9999 -9999 -9999 -9999 -9999 -9999 -9999 -9999 -9999 -9999 -9999 -9999 -9999 -9999 -9999 -9999 -9999 -9999 -9999 -9999 -9999 -9999 -9999 -9999 -9999 -9999 -9999 -9999 -9999 -9999 -9999 -9999 -9999 -9999 -9999 -9999 -9999 -9999 -9999 -9999 -9999 -9999 -9999 -9999 -9999 -9999 -9999 -9999 -9999 -9999 -9999 -9999 -9999 -9999 -9999 -9999 -9999 -9999 -9999 -9999 -9999 -9999 -9999 -9999 -9999 -9999 -9999 -9999 -9999 -9999 -9999 -9999 -9999 -9999 -9999 -9999 -9999 -9999 -9999 -9999 -9999 -9999 -9999 -9999 -9999 -9999 -9999 -9999 -9999 -9999 -9999 -9999 -9999 -9999 -9999 -9999 -9999 -9999 -9999 -9999 -9999 -9999 -9999 -9999 -9999 -9999 -9999 1222 1266 1321 1323 1214 1123 939 831 819 709 698 624 627 691 548 540 479 455 459 481 487 451 459 432 412 404 398 398 397 372 401 385 407 420 418 422 408 394 389 391 386 371 352 358 374 376 349 336 347 341 344 338 373 378 370 358 354 341 330 322 320 315 331 339 360 349 345 358 336 351 366 376 385 411 417 438 407 395 384 381 398 397 383 376 403 418 428 422 379 367 355 362 361 349 339 333 339 322 342 352 352 347 343 341 343 339 346 351 358 349 334 343 335 326 319 314 305 302 290 290 285 286 284 284 284 289 297 292 286 275 280 275 262 254 255 264 274 269 270 262 243 266 286 280 273 264 281 284 281 262 261 268 274 290 285 287 284 287 281 271 287 283 271 272 269 266 254 247 262 259 235 241 232 233 231 226 222 224 224 224 237 235 232 234 234 243 243 241 242 243 248 235 239 233 225 224 214 208 206 219 223 220 234 246 240 226 236 239 236 234 234 232 228 225 225 213 200 206 214 203 200 215 221 203 211 205 196 195 193 201 207 203 212 215 209 222 223 210 195 217 232 257 257 245 233 225 234 226 232 242 232 254 249 236 230 238 232 235 229 239 243 239 240 226 218 221 217 177 185 168 148 164 170 176 176 143 156 166 179 182 178 169 160 174 181 178 191 228 275 234 258 254 237 232 223 214 217 192 210 220 203 197 195 -9999 -9999 -9999 -9999 -9999 -9999 -9999 -9999 -9999 -9999 -9999 -9999 -9999 -9999 -9999 -9999 -9999 -9999 -9999 -9999 -9999 -9999 -9999 -9999 -9999 -9999 -9999 -9999 -9999 -9999 -9999 -9999 -9999 -9999 -9999 -9999 -9999 -9999 -9999 -9999 -9999 -9999 -9999 -9999 -9999 -9999 -9999 -9999 -9999 -9999 -9999 -9999 -9999 -9999 -9999 -9999 -9999 -9999 -9999 -9999 -9999 -9999 -9999 -9999 -9999 -9999 -9999 -9999 -9999 -9999 -9999 -9999 -9999 -9999 -9999 -9999 -9999 -9999 -9999 -9999 -9999 -9999 -9999 -9999 -9999 -9999 -9999 -9999 -9999 -9999 -9999 -9999 -9999
-9999 -9999 -9999 -9999 -9999 -9999 -9999 -9999 -9999 -9999 -9999 -9999 -9999 -9999 -9999 -9999 -9999 -9999 -9999 -9999 -9999 -9999 -9999 -9999 -9999 -9999 -9999 -9999 -9999 -9999 -9999 -9999 -9999 -9999 -9999 -9999 -9999 -9999 -9999 -9999 -9999 -9999 -9999 -9999 -9999 -9999 -9999 -9999 -9999 -9999 -9999 -9999 -9999 -9999 -9999 -9999 -9999 -9999 -9999 -9999 -9999 -9999 -9999 -9999 -9999 -9999 -9999 -9999 -9999 -9999 -9999 -9999 -9999 -9999 -9999 -9999 -9999 -9999 -9999 -9999 -9999 -9999 -9999 -9999 -9999 -9999 -9999 -9999 -9999 -9999 -9999 -9999 -9999 -9999 -9999 -9999 -9999 -9999 -9999 -9999 -9999 -9999 -9999 -9999 -9999 -9999 -9999 -9999 -9999 -9999 -9999 -9999 -9999 -9999 -9999 -9999 -9999 -9999 -9999 -9999 -9999 -9999 -9999 -9999 -9999 1149 1231 1360 1417 1334 1157 1014 964 1015 966 828 768 759 754 831 715 705 626 525 514 447 444 498 448 413 406 403 380 374 371 386 388 390 386 404 418 415 419 410 399 389 381 382 369 359 346 344 353 354 340 350 375 378 353 366 375 365 347 346 338 332 334 336 330 343 345 356 350 350 354 345 341 366 381 393 450 564 574 530 514 469 425 467 466 422 436 505 521 493 449 398 374 386 372 356 347 348 338 346 340 346 350 342 338 328 322 332 319 333 338 335 353 341 315 323 319 304 309 315 304 302 306 300 296 300 299 304 292 293 285 275 277 293 283 278 267 254 250 252 258 257 252 257 276 281 274 261 255 256 269 263 254 268 283 290 284 277 279 287 283 288 288 287 279 280 281 268 253 251 261 271 254 243 258 246 253 252 249 243 242 235 237 247 244 240 235 235 236 234 228 235 234 228 222 225 229 218 218 207 209 219 229 237 232 228 244 237 235 239 242 240 237 238 234 231 224 224 215 200 199 200 202 201 200 201 198 197 193 190 189 188 197 201 201 212 211 210 217 220 200 199 217 250 265 244 235 237 223 219 221 229 238 229 236 230 229 231 237 228 227 230 231 241 230 225 211 208 211 215 204 196 191 162 161 173 187 202 152 145 166 179 172 155 165 188 194 182 184 202 250 262 249 261 261 232 242 223 235 -9999 -9999 -9999 -9999 -9999 -9999 -9999 -9999 -9999 -9999 -9999 -9999 -9999 -9999 -9999 -9999 -9999 -9999 -9999 -9999 -9999 -9999 -9999 -9999 -9999 -9999 -9999 -9999 -9999 -9999 -9999 -9999 -9999 -9999 -9999 -9999 -9999 -9999 -9999 -9999 -9999 -9999 -9999 -9999 -9999 -9999 -9999 -9999 -9999 -9999 -9999 -9999 -9999 -9999 -9999 -9999 -9999 -9999 -9999 -9999 -9999 -9999 -9999 -9999 -9999 -9999 -9999 -9999 -9999 -9999 -9999 -9999 -9999 -9999 -9999 -9999 -9999 -9999 -9999 -9999 -9999 -9999 -9999 -9999 -9999 -9999 -9999 -9999 -9999 -9999 -9999 -9999 -9999 -9999 -9999 -9999 -9999 -9999 -9999 -9999
-9999 -9999 -9999 -9999 -9999 -9999 -9999 -9999 -9999 -9999 -9999 -9999 -9999 -9999 -9999 -9999 -9999 -9999 -9999 -9999 -9999 -9999 -9999 -9999 -9999 -9999 -9999 -9999 -9999 -9999 -9999 -9999 -9999 -9999 -9999 -9999 -9999 -9999 -9999 -9999 -9999 -9999 -9999 -9999 -9999 -9999 -9999 -9999 -9999 -9999 -9999 -9999 -9999 -9999 -9999 -9999 -9999 -9999 -9999 -9999 -9999 -9999 -9999 -9999 -9999 -9999 -9999 -9999 -9999 -9999 -9999 -9999 -9999 -9999 -9999 -9999 -9999 -9999 -9999 -9999 -9999 -9999 -9999 -9999 -9999 -9999 -9999 -9999 -9999 -9999 -9999 -9999 -9999 -9999 -9999 -9999 -9999 -9999 -9999 -9999 -9999 -9999 -9999 -9999 -9999 -9999 -9999 -9999 -9999 -9999 -9999 -9999 -9999 -9999 -9999 -9999 -9999 -9999 -9999 -9999 -9999 -9999 -9999 -9999 1331 1270 1319 1297 1294 1129 978 882 867 903 883 936 985 1007 983 876 722 668 656 637 571 488 421 449 421 406 390 388 408 403 398 400 411 399 409 409 407 393 402 407 408 396 403 393 377 370 371 365 341 355 373 368 378 390 376 367 365 370 359 352 344 334 369 350 342 359 371 365 356 346 350 357 358 354 363 398 520 542 540 521 525 481 483 524 502 460 464 522 586 529 447 411 409 405 387 377 368 353 348 354 364 346 335 326 335 328 316 305 297 318 320 315 326 329 315 301 306 302 300 304 302 299 300 306 315 310 309 303 295 283 280 292 297 298 295 291 278 274 260 248 243 243 245 242 251 256 250 244 241 239 245 247 252 268 282 287 281 268 274 278 278 290 289 289 285 274 270 266 254 261 274 270 248 256 263 256 265 257 248 245 247 253 250 244 235 229 226 224 221 219 220 222 225 223 216 218 223 216 208 214 224 222 232 245 243 238 243 237 242 235 233 233 229 229 222 226 218 210 208 199 207 214 216 211 202 196 206 204 213 211 202 187 188 198 204 198 213 219 223 222 214 204 234 250 236 229 225 226 224 217 219 229 231 235 216 226 245 233 232 222 223 229 227 236 228 212 213 216 198 215 202 189 189 149 152 163 194 181 155 144 161 171 163 156 179 196 211 205 201 212 234 245 -9999 -9999 -9999 -9999 -9999 -9999 -9999 -9999 -9999 -9999 -9999 -9999 -9999 -9999 -9999 -9999 -9999 -9999 -9999 -9999 -9999 -9999 -9999 -9999 -9999 -9999 -9999 -9999 -9999 -9999 -9999 -9999 -9999 -9999 -9999 -9999 -9999 -9999 -9999 -9999 -9999 -9999 -9999 -9999 -9999 -9999 -9999 -9999 -9999 -9999 -9999 -9999 -9999 -9999 -9999 -9999 -9999 -9999 -9999 -9999 -9999 -9999 -9999 -9999 -9999 -9999 -9999 -9999 -9999 -9999 -9999 -9999 -9999 -9999 -9999 -9999 -9999 -9999 -9999 -9999 -9999 -9999 -9999 -9999 -9999 -9999 -9999 -9999 -9999 -9999 -9999 -9999 -9999 -9999 -9999 -9999 -9999 -9999 -9999 -9999 -9999 -9999 -9999 -9999 -9999 -9999 -9999
-9999 -9999 -9999 -9999 -9999 -9999 -9999 -9999 -9999 -9999 -9999 -9999 -9999 -9999 -9999 -9999 -9999 -9999 -9999 -9999 -9999 -9999 -9999 -9999 -9999 -9999 -9999 -9999 -9999 -9999 -9999 -9999 -9999 -9999 -9999 -9999 -9999 -9999 -9999 -9999 -9999 -9999 -9999 -9999 -9999 -9999 -9999 -9999 -9999 -9999 -9999 -9999 -9999 -9999 -9999 -9999 -9999 -9999 -9999 -9999 -9999 -9999 -9999 -9999 -9999 -9999 -9999 -9999 -9999 -9999 -9999 -9999 -9999 -9999 -9999 -9999 -9999 -9999 -9999 -9999 -9999 -9999 -9999 -9999 -9999 -9999 -9999 -9999 -9999 -9999 -9999 -9999 -9999 -9999 -9999 -9999 -9999 -9999 -9999 -9999 -9999 -9999 -9999 -9999 -9999 -9999 -9999 -9999 -9999 -9999 -9999 -9999 -9999 -9999 -9999 -9999 -9999 -9999 -9999 -9999 -9999 -9999 1551 1453 1356 1222 1155 1112 1132 1143 935 753 847 840 821 890 978 1080 1041 910 681 570 535 497 491 452 415 408 394 381 384 401 422 426 439 422 428 403 417 412 402 390 381 385 396 392 376 386 416 388 357 343 369 394 389 389 378 396 377 376 385 381 370 341 337 352 370 362 345 341 370 368 362 348 361 363 362 351 367 394 424 439 459 470 490 488 443 443 431 411 394 440 504 484 434 387 374 366 371 405 364 354 338 348 354 340 326 305 298 289 284 281 282 292 302 318 308 320 314 312 299 297 283 297 295 287 298 307 321 316 317 310 307 297 293 289 289 285 286 280 273 265 248 258 277 269 265 266 262 250 253 258 256 254 239 236 256 274 285 282 269 265 273 264 282 281 276 285 281 277 268 255 263 276 278 260 256 270 272 268 269 261 257 261 260 257 247 235 239 243 239 233 224 221 215 213 211 212 210 211 214 207 211 224 231 226 241 248 254 248 247 237 233 227 218 219 223 222 216 214 210 201 200 208 228 227 220 214 210 210 216 217 209 204 205 188 188 215 208 198 210 213 218 217 204 222 234 225 224 226 218 224 230 216 216 222 226 239 221 239 245 239 228 219 223 222 232 239 222 212 220 203 199 202 193 180 171 151 144 188 180 168 140 160 166 152 154 167 178 -9999 -9999 -9999 -9999 -9999 -9999 -9999 -9999 -9999 -9999 -9999 -9999 -9999 -9999 -9999 -9999 -9999 -9999 -9999 -9999 -9999 -9999 -9999 -9999 -9999 -9999 -9999 -9999 -9999 -9999 -9999 -9999 -9999 -9999 -9999 -9999 -9999 -9999 -9999 -9999 -9999 -9999 -9999 -9999 -9999 -9999 -9999 -9999 -9999 -9999 -9999 -9999 -9999 -9999 -9999 -9999 -9999 -9999 -9999 -9999 -9999 -9999 -9999 -9999 -9999 -9999 -9999 -9999 -9999 -9999 -9999 -9999 -9999 -9999 -9999 -9999 -9999 -9999 -9999 -9999 -9999 -9999 -9999 -9999 -9999 -9999 -9999 -9999 -9999 -9999 -9999 -9999 -9999 -9999 -9999 -9999 -9999 -9999 -9999 -9999 -9999 -9999 -9999 -9999 -9999 -9999 -9999 -9999 -9999 -9999 -9999 -9999 -9999 -9999
-9999 -9999 -9999 -9999 -9999 -9999 -9999 -9999 -9999 -9999 -9999 -9999 -9999 -9999 -9999 -9999 -9999 -9999 -9999 -9999 -9999 -9999 -9999 -9999 -9999 -9999 -9999 -9999 -9999 -9999 -9999 -9999 -9999 -9999 -9999 -9999 -9999 -9999 -9999 -9999 -9999 -9999 -9999 -9999 -9999 -9999 -9999 -9999 -9999 -9999 -9999 -9999 -9999 -9999 -9999 -9999 -9999 -9999 -9999 -9999 -9999 -9999 -9999 -9999 -9999 -9999 -9999 -9999 -9999 -9999 -9999 -9999 -9999 -9999 -9999 -9999 -9999 -9999 -9999 -9999 -9999 -9999 -9999 -9999 -9999 -9999 -9999 -9999 -9999 -9999 -9999 -9999 -9999 -9999 -9999 -9999 -9999 -9999 -9999 -9999 -9999 -9999 -9999 -9999 -9999 -9999 -9999 -9999 -9999 -9999 -9999 -9999 -9999 -9999 -9999 -9999 -9999 -9999 -9999 -9999 -9999 1371 1283 1331 1321 1139 1000 948 1009 983 805 677 780 849 832 771 888 1044 1084 953 780 752 682 526 445 434 410 391 407 388 418 424 431 457 447 429 425 420 460 432 418 408 412 395 376 366 370 366 386 369 350 345 383 395 403 388 386 402 397 383 367 365 344 330 343 361 370 360 356 352 369 370 357 357 373 372 380 413 459 478 418 411 417 434 492 446 432 455 430 420 418 390 387 433 500 377 359 369 353 357 351 333 323 320 314 315 321 306 288 312 312 314 297 288 292 304 297 302 298 308 306 298 277 291 288 282 297 310 314 311 309 310 310 303 296 286 277 275 276 261 258 258 258 280 293 288 275 268 276 267 271 276 274 269 263 249 249 269 278 266 271 258 261 269 275 265 274 272 277 274 270 267 273 283 278 270 271 269 270 272 270 270 265 261 259 252 243 246 249 244 235 230 222 217 217 218 223 226 223 224 214 205 215 223 233 234 241 251 251 243 237 235 229 229 225 215 207 207 201 203 203 205 214 215 227 225 220 220 219 223 226 218 218 206 193 194 215 221 201 201 210 218 225 215 197 211 210 213 217 212 219 229 232 214 215 218 223 219 219 233 233 223 212 224 251 221 251 242 223 208 209 199 183 176 182 173 160 150 158 183 174 146 149 -9999 -9999 -9999 -9999 -9999 -9999 -9999 -9999 -9999 -9999 -9999 -9999 -9999 -9999 -9999 -9999 -9999 -9999 -9999 -9999 -9999 -9999 -9999 -9999 -9999 -9999 -9999 -9999 -9999 -9999 -9999 -9999 -9999 -9999 -9999 -9999 -9999 -9999 -9999 -9999 -9999 -9999 -9999 -9999 -9999 -9999 -9999 -9999 -9999 -9999 -9999 -9999 -9999 -9999 -9999 -9999 -9999 -9999 -9999 -9999 -9999 -9999 -9999 -9999 -9999 -9999 -9999 -9999 -9999 -9999 -9999 -9999 -9999 -9999 -9999 -9999 -9999 -9999 -9999 -9999 -9999 -9999 -9999 -9999 -9999 -9999 -9999 -9999 -9999 -9999 -9999 -9999 -9999 -9999 -9999 -9999 -9999 -9999 -9999 -9999 -9999 -9999 -9999 -9999 -9999 -9999 -9999 -9999 -9999 -9999 -9999 -9999 -9999 -9999 -9999 -9999 -9999 -9999 -9999 -9999
-9999 -9999 -9999 -9999 -9999 -9999 -9999 -9999 -9999 -9999 -9999 -9999 -9999 -9999 -9999 -9999 -9999 -9999 -9999 -9999 -9999 -9999 -9999 -9999 -9999 -9999 -9999 -9999 -9999 -9999 -9999 -9999 -9999 -9999 -9999 -9999 -9999 -9999 -9999 -9999 -9999 -9999 -9999 -9999 -9999 -9999 -9999 -9999 -9999 -9999 -9999 -9999 -9999 -9999 -9999 -9999 -9999 -9999 -9999 -9999 -9999 -9999 -9999 -9999 -9999 -9999 -9999 -9999 -9999 -9999 -9999 -9999 -9999 -9999 -9999 -9999 -9999 -9999 -9999 -9999 -9999 -9999 -9999 -9999 -9999 -9999 -9999 -9999 -9999 -9999 -9999 -9999 -9999 -9999 -9999 -9999 -9999 -9999 -9999 -9999 -9999 -9999 -9999 -9999 -9999 -9999 -9999 -9999 -9999 -9999 -9999 -9999 -9999 -9999 -9999 -9999 -9999 -9999 -9999 1478 1380 1216 1080 1134 1137 1061 997 845 791 822 678 638 731 894 922 756 720 832 865 884 761 607 496 462 423 419 411 396 387 401 438 447 446 446 438 439 437 465 509 515 439 427 407 392 401 396 398 368 346 347 378 371 364 388 396 395 390 399 370 358 343 347 359 352 352 352 366 372 362 347 369 366 358 362 377 394 432 483 528 475 466 444 404 395 426 421 396 439 419 394 399 414 371 365 360 361 350 346 347 332 327 317 335 358 340 307 305 290 309 329 339 326 314 302 284 281 279 299 290 292 300 296 278 280 280 291 307 298 312 312 302 297 304 308 296 290 272 280 279 260 282 283 283 289 286 271 274 266 264 256 259 259 256 252 252 252 237 252 269 257 270 252 264 266 266 258 261 272 262 264 272 278 287 276 268 270 262 256 267 262 261 260 259 258 253 251 248 246 240 237 227 221 219 231 231 234 233 226 223 216 220 221 219 233 238 243 246 244 241 239 234 228 223 223 218 208 215 209 212 209 219 219 222 223 223 211 205 208 219 215 220 219 208 201 191 202 218 211 196 207 213 219 229 221 213 192 212 212 213 212 226 241 237 210 209 213 214 212 229 251 237 215 206 232 255 216 241 263 258 231 220 185 185 165 180 197 -9999 -9999 -9999 -9999 -9999 -9999 -9999 -9999 -9999 -9999 -9999 -9999 -9999 -9999 -9999 -9999 -9999 -9999 -9999 -9999 -9999 -9999 -9999 -9999 -9999 -9999 -9999 -9999 -9999 -9999 -9999 -9999 -9999 -9999 -9999 -9999 -9999 -9999 -9999 -9999 -9999 -9999 -9999 -9999 -9999 -9999 -9999 -9999 -9999 -9999 -9999 -9999 -9999 -9999 -9999 -9999 -9999 -9999 -9999 -9999 -9999 -9999 -9999 -9999 -9999 -9999 -9999 -9999 -9999 -9999 -9999 -9999 -9999 -9999 -9999 -9999 -9999 -9999 -9999 -9999 -9999 -9999 -9999 -9999 -9999 -9999 -9999 -9999 -9999 -9999 -9999 -9999 -9999 -9999 -9999 -9999 -9999 -9999 -9999 -9999 -9999 -9999 -9999 -9999 -9999 -9999 -9999 -9999 -9999 -9999 -9999 -9999 -9999 -9999 -9999 -9999 -9999 -9999 -9999 -9999 -9999 -9999 -9999 -9999 -9999 -9999 -9999
